# 3D point list with one line of data per point:
#   POINT3D_ID, X, Y, Z, R, G, B, ERROR, TRACK[] as (IMAGE_ID, POINT2D_IDX)
# Number of points: 406, mean track length: 5.1291767137444024
5727 -0.02306416684608531 0.77927603530963041 3.2272834300918625 35 23 20 0.36344608591331901 13 700 18 376 49 765 3 738 23 381
5728 -0.22837451592557084 1.0165475147046856 1.6730874057507095 27 28 38 0.16511619958194254 13 715 49 789 3 609
5729 -0.10738285595042407 1.6571754872044635 1.443031046234877 196 194 209 0.25122644462432397 13 450 18 665 49 792 3 627 67 26
5730 -0.064711530342649676 1.8605104272819142 1.6804444112494392 65 67 83 0.45600359165166826 13 475 49 819 3 74
5731 -0.64769624851343188 1.1693213936674596 2.1563256088646696 167 165 168 0.33633362545003997 13 884 79 483 49 822 3 773
5732 -0.58492006587571233 1.175052595907278 2.1454823237668901 21 14 2 0.26442896542691868 13 743 49 823 3 388
5733 -0.14617923370364636 1.4275695732833287 2.0783551994756446 92 92 106 0.20101900401791964 13 490 49 829 3 402
5734 -0.45712602382975059 1.2896244660250986 2.2908571440023295 14 15 18 0.21616369551993547 13 495 18 463 49 832 3 669 23 675
5735 0.13131613989174215 2.409493321917918 1.7633342948566209 48 53 72 0.22438408473134969 13 907 49 834 50 572 67 592
5736 -1.190986530588193 1.7170022623750172 2.4992069461872783 113 79 64 1.3795799730249294 18 993 49 843 23 680 42 481 75 839
5737 -1.1776330562978861 1.3331784979889005 2.7504209655240786 149 98 69 0.24186139696261252 13 138 49 861 3 459
5738 -0.44054205070692493 1.2958438320015704 2.8290284525264755 126 114 88 0.31803906351690409 13 800 49 906 3 710
5739 -0.11241046107725902 0.86164879628451285 3.171974060134207 231 217 184 0.20941530595443142 18 1149 23 1093
5740 -0.15317394375407392 1.9338394955843421 1.1659897703069628 150 89 20 0.31451054474700341 13 858 49 986 3 826
5741 -1.0487731267849754 0.57675874868236532 2.0065891193064265 239 230 78 0.9253408488886844 13 430 49 987 3 748
5742 -0.21127880152874054 1.6127941944602473 1.3437501085801256 151 105 19 0.11198702079318246 13 856 49 988 3 754 50 455 67 485
5743 -0.25058235370202225 0.99364624017951919 1.6966610391267944 109 89 20 0.28640500880915687 13 854 49 991 3 611
5744 -0.054772539938954638 2.0500235357858743 1.3424958838525463 12 10 13 0.30170848980245091 13 729 49 1002 3 639
5745 0.075355578457397515 2.2665780222686402 1.372579354216362 0 0 0 1.1178419891622358 13 738 49 1010 3 833 50 554 27 574
5746 -0.29759261604825055 1.3688537730831412 2.0086219655441027 107 87 24 0.57059772695382804 13 886 49 1023 3 835
5747 -0.58133319031545849 1.4416859794064716 2.4626268732402123 255 221 55 0.46932350987451926 13 763 18 1006 49 1042
5748 -1.3724038729902113 1.258043201786885 2.826625356960732 0 0 0 2.0436348310008752 79 510 49 1045 23 1077
5749 0.208471008198683 2.4868509160150696 1.9592960905296797 79 89 92 0.66594944994315242 13 785 79 685 49 1047
5750 0.50299276745029264 1.5310035990152457 2.4014662191411729 87 86 81 0.21575130924831382 51 1200 49 1067
5751 -0.6190538189164061 1.6911263930806972 1.2876357442007937 0 0 0 1.1279944698568789 13 947 18 1154 49 1100
5752 -0.075006069325473129 1.8777427294033628 1.1147963112298267 88 50 4 0.38506979235728062 13 994 79 811 49 1102 3 824
5753 -0.26026807683121628 0.96991953825957267 1.6217646277411837 255 226 61 0.26536455674064408 13 850 49 1103 3 744
5754 -0.026353133765731548 1.8301691896233803 1.7369637074641424 53 58 80 0.33202845391771646 13 1010 49 1127 3 836
5755 0.13554993180363101 2.3148335090445658 1.7304659585240127 49 54 75 0.19537608685669774 13 976 49 1135 3 846
5756 -0.3285818633123283 1.5235718807451573 2.1505036969490137 61 50 38 0.54563108189615828 13 902 49 1136 3 845
5757 -0.31276439818121921 0.33432634505983233 2.2642057637145929 0 0 0 0.72991759857696814 13 960 49 1176
5758 -0.64667756337080495 1.2348027254943372 2.0812532901180871 175 131 48 0.70864579565242081 13 1009 49 1177 3 899 50 600
5759 -0.32375734513765214 1.4584015770007595 2.0640558640636404 6 4 3 0.47409228337206427 13 969 49 1178 3 838
5760 -0.32375734513765214 1.4584015770007595 2.0640558640636404 6 4 3 0.47409228337206427 13 970 49 1179 3 839
5761 0.29851759702352865 2.4960251325615346 1.9853574021687987 46 32 27 2.5731640195777139 13 1021 49 1189 50 580 67 603
5762 -0.025618036477455093 0.86107686314133725 3.1573111930465965 46 31 25 0.06349296519266806 13 1030 49 1196 3 922
5763 -0.048937403871770764 0.80429974798634329 3.2045360494419182 64 43 33 0.26963439161564695 13 1031 49 1197 3 923
5764 -0.91493874092485139 0.6275441268104287 2.0426591696920182 255 228 63 1.3418725062971639 13 996 49 1203 23 1143
5765 -0.090371030512114314 1.7091755770011918 1.8383290749719772 12 12 14 0.34187600154173914 13 1043 18 1207 49 1207 3 937 23 1116
5766 -0.55345825370916546 1.7155719378853758 1.3585988794990145 254 242 80 0.84608947947564594 18 1236 49 1219
5767 -0.22899825715192118 1.9051401673531951 1.0390982573612926 255 233 68 0.31675682045860276 13 1050 49 1226
5768 0.13006640235793723 2.2242290460091607 1.902172683906858 60 67 91 1.7177701737765307 13 1064 49 1239 3 973
5769 -0.22953927747622183 1.6563646399366738 2.4617700514184784 44 42 43 1.1341919346443685 13 1057 49 1241 3 963
5770 0.46572045804769946 2.6833937910012837 1.9956824440856511 0 0 0 1.7200093450105918 9 1614 79 859 49 1242
5771 0.028492641259322736 2.2993758036451135 1.2678818219411183 0 0 0 2.2163976506460998 13 1060 49 1243 3 969
5772 0.32464019804969985 2.5872928016546046 1.8458861190272502 117 119 110 2.1343960098016495 13 1070 79 862 49 1245 50 670 3 980 67 703
5773 -0.35568783582663882 1.6714668535005444 1.2687811149455861 255 212 60 1.6996573991783122 13 1067 79 851 3 985
5774 -1.0428135186861027 1.0250735398530018 3.0527563778211801 155 148 128 1.862391815429203 13 1079 49 1254 3 983
5775 -0.77522430126460751 1.0132286844622742 2.3945759449013786 0 0 0 1.3601044593809941 13 1086 79 866 49 1258 3 996
5776 -0.17466774596023779 1.6353429026601498 1.3526478798290531 254 230 61 0.50673249577566692 46 112 91 561 9 755 79 20 13 716 49 783 87 950 40 844 94 821 24 719 15 659 93 706 18 953 70 573 3 617 50 13 67 14 42 449
5777 -0.064082167310393595 1.9912395436752308 1.0944788618479651 32 27 27 0.16235841324250982 49 20 3 19 27 366 50 172 67 196
5778 -0.093839919730983684 2.004744092139676 1.200214196343272 100 51 3 0.069767527092689907 13 30 49 39 3 34
5779 -0.093839919730983684 2.004744092139676 1.200214196343272 100 51 3 0.069767527092689907 13 31 49 40 3 35
5780 0.11570433104140876 2.2754021074614337 1.7332622716524906 27 28 36 0.12476200671008469 13 113 3 94 27 248 85 376 50 217 67 257
5781 0.11131253737379945 2.2500387785093259 1.7618007530816675 58 61 80 0.15033678987719448 79 305 3 99 27 410 85 380 50 221 67 263
5782 -0.01452014199328263 2.1010679950308835 1.9945591559919957 52 30 1 0.21053576717728237 13 128 3 114 50 237 79 325 67 429
5783 0.095752618343866058 2.3050380773572887 1.9319589661059995 61 70 94 0.21855589326621605 13 533 3 124 27 307 85 274 50 115 67 134
5784 -0.012764454124814542 1.8169616294492925 2.208811946217033 9 8 9 0.099087233223728602 13 155 3 127
5785 -0.056985491927660829 1.7126803553207186 2.2824237417328006 25 26 36 0.074474517339224527 13 164 3 129
5786 -0.068199076976420497 1.5805974352230971 2.4222136018954243 32 29 34 0.034205945254008246 13 231 3 166
5787 -0.27305475143727936 1.3789733691790362 1.9701419400997318 82 44 4 0.22842441004578631 13 476 79 263 3 386
5788 -0.071039801874554276 1.746498011209497 1.793511974059091 100 116 151 0.32889468765003971 49 518 3 394 23 449
5790 -0.074532727651936137 1.994440477243355 1.8299965288569113 2 1 3 0.51607449272570194 13 104 79 284 3 413 27 402 85 467 50 385 67 408
5792 0.11375837912476156 2.4538721392668763 1.4733919413728858 70 85 115 0.38896269093123698 79 733 3 664 27 589 85 529 50 561 67 582
5793 -0.27146640672146771 1.6455917811569283 1.3944344022730093 253 209 59 0.52146271995948346 49 990 3 756 50 18 13 721 67 18
5794 -0.0061780736729439463 2.2688896018725435 1.381120476162129 135 120 44 0.78871172858816363 13 879 3 768 50 472 67 573
5795 -0.034073095380488916 1.8639923617091023 1.8536369862077213 103 93 28 0.18744189109364071 13 900 3 782 50 559 85 527 67 580
5796 0.36893851161772584 2.6831315618718148 1.8509971617933747 49 33 27 1.209900187327875 79 691 3 813 27 616
5797 0.31058846087142072 2.2049353029286616 2.1034611825437421 71 49 39 1.1985252812303977 13 1022 3 857 27 610 67 532
5798 -0.37689764941276721 1.6371585744637658 1.3284877472947083 89 53 19 0.28660545426716838 13 949 49 1161 3 892
5799 -1.139179732358246 1.256955204284526 2.8163746106157217 98 66 48 1.2622629079294565 13 1019 49 1209 3 918
5800 -0.15922858906191004 1.757043409351857 1.9974371592312694 123 75 11 1.3375650977770899 13 1054 49 1225 3 950
5801 0.0092882730076343008 2.1749418573921218 1.7550366338002352 3 3 4 2.1366535361152041 49 1238 3 961 67 686
5802 -0.3542587458122311 1.3569526671459728 1.582188521751273 0 0 0 1.2813800243327618 13 1068 49 1227 3 968
5803 -0.062091452898201456 1.7310821409869654 2.2930073556053352 36 39 54 0.48476305553943311 79 858 3 978 83 1262
5804 0.0044062982469601844 2.2267088345525021 1.5050231136409404 100 87 26 0.38453150740663505 13 1077 3 986 50 676 67 707
5805 -0.58303523765195853 0.56695735772597444 1.8378140036358057 176 101 10 1.7812619789393187 3 993 85 653
5806 -0.64713748663005821 1.0965602410009585 3.013420258045735 123 112 87 1.7882725215514625 79 867 3 995 27 713
5808 0.018243674325839308 1.9525470866367041 1.6132061442260153 104 92 27 0.027504001119613722 36 143 27 37 67 49
5809 0.12550438219029134 2.3598159393344904 1.8380371555366672 30 21 10 0.31639431022350512 51 468 27 96
5810 0.079149808441022346 1.2054690536610144 2.8825640507129564 100 67 50 0.2422756263608595 3 588 27 183 85 164 50 163 67 185
5811 -0.057761473257062525 2.0042715871915529 1.1280712583019172 108 95 26 0.17223658021843882 79 232 27 200 67 17 50 16
5813 0.10729296575770955 2.2694502883135428 1.7852701428108546 26 19 13 0.15748215498735715 36 667 79 94 27 253 85 239 50 80 67 97
5814 -0.045340443980910451 1.7088251247601589 2.2385583998958176 34 24 4 0.22923647736939284 79 342 27 259 50 236 67 275
5815 -0.042993257109295448 1.7074833862552983 2.2380405446826437 34 24 4 0.21873519817539422 79 343 27 260 67 276
5816 0.11600916182261881 2.3164497224075626 1.7898576158885242 31 20 7 0.18321008879332648 98 676 27 262 85 248 90 702 50 229
5817 0.076152825951426362 1.1456173306610864 2.920081850259975 106 77 64 0.46235394842323341 79 604 27 348 85 162 67 186
5818 0.39211025773885083 2.4826269751422161 1.939729483473253 119 82 63 0.19011973871948898 79 592 27 350 85 301 50 149 67 177
5819 -0.036933636335866417 2.1607336940747803 1.7025423698226421 3 3 3 0.35101260142385016 3 406 27 396 85 361 58 365 50 382 67 405
5820 -0.045561083328786688 2.0931898866047245 1.784577833496277 76 63 14 0.14647278009176212 3 416 27 404 50 391 67 412
5821 0.10037169087959555 2.2191566347198477 1.8286382267590409 60 66 87 0.24320094107369974 3 425 27 414 85 474 50 399
5822 0.035741335817103786 1.9702459683416951 2.0636555555178027 29 8 0 0.48978763410740911 3 437 85 388
5825 -0.41039020250383373 1.1902154973224923 2.2346073287956933 172 159 153 0.73691887812548862 30 795 27 521 85 460
5826 -0.082513017151081419 1.6153088800061219 2.5599393801374895 211 189 145 1.5768599607021179 27 545 85 483 50 622 67 602
5827 0.42788248416919034 2.5126790647557558 1.9329171307170907 50 34 27 0.097141525454321392 98 1106 27 552
5828 -0.17433538257272219 1.4760820052548798 2.0207809181817056 73 81 86 0.52578439855999382 79 729 27 577 85 522
5829 -0.47883747496567897 1.4906790661917517 2.4692676919881604 65 64 70 0.42996638277991289 79 819 27 598 50 614 67 665
5830 -0.016515653641082075 1.9871006831352518 2.0263590084110334 78 61 15 0.23333246161697188 79 671 27 600 50 570 67 589
5831 0.40892735258231094 2.7148891030193218 1.7581495516353982 102 104 93 0.074582527888513397 79 684 27 611
5832 0.45818274443143137 2.680009547285219 1.8094843502588653 58 40 32 0.15386262541634629 79 690 27 615
5833 -0.023748387417279353 2.1045156429627405 2.0580706369352777 87 75 21 0.1034089154049298 79 791 27 644 50 615
5834 -0.62272265395963122 0.39173028800630033 1.8826393939585868 0 0 0 0.45023563049997534 71 717 27 650
5835 -0.062745632315296007 1.6380076100815939 2.4452139391476493 48 49 64 0.20547237187634196 79 795 50 619 67 642
5836 -0.045735506801443608 1.558497435532133 2.482795765186899 3 3 3 1.1847528349113561 91 1268 27 665 9 1570 50 642 67 668
5839 0.1675721687134934 1.4871260812215408 2.6467657476715591 36 25 23 0.90099422973241583 79 836 27 684 85 623 50 645 67 673
5840 -0.38194529574876229 1.2482930685952367 2.1902637957126223 111 91 24 0.23341403954258011 30 799 36 791 27 520 91 1060 79 642 13 891 85 459 50 477
5841 -0.44418215168038333 2.1301073832388218 1.2491139886130538 249 188 50 0.28125266385764264 79 239 27 17
5842 -0.074184995311407098 1.9965124750463414 1.8903690786353939 85 75 19 0.10361367585871369 36 174 85 63 67 83
5843 -1.094401917945101 1.1604450852028125 2.9220672386455062 112 100 76 0.24570140472284116 27 261 85 87 50 265 67 313
5845 0.32847025580565536 2.3364935097751367 1.9887063930739735 75 52 42 0.21627140219882213 27 335 85 161 50 289
5846 0.11353180630995044 2.2703611713737626 1.705031336223225 35 35 45 0.13451062639013894 27 244 85 231 50 214 67 253 3 89
5847 -0.0020241641344862747 2.113512490363656 1.8995013969147794 33 24 2 0.50815188051915006 27 70 36 637 85 238 50 79 67 98
5848 0.10261266246937284 2.2657024168171649 1.8319770617143196 32 22 3 0.1450511223168125 27 266 85 249 50 230 67 268
5849 0.27073006027584878 1.9546700796622725 2.2985187844145774 92 101 101 0.61878861303832178 27 344 85 298 67 335 50 304
5850 -0.06888983799316456 2.0506398486798942 1.7856212858763407 13 6 3 0.1773679757870365 27 398 85 363 50 384 3 410 67 407
5851 -0.39527440924346618 1.3960610774439688 2.3441205097663693 6 3 3 0.42411816473575414 27 405 85 364 67 514
5853 -0.089775558347281764 1.9360010840234716 1.8702321928996104 14 8 6 0.3820155543888662 27 399 85 468 50 386 79 285 67 409
5854 -0.37046809827008764 1.4197808563248262 2.30766904208292 115 93 24 0.095660804503849353 27 531 85 469 50 487 67 513
5855 0.10537894719751781 2.2168138436034011 1.8285569808050719 58 65 86 0.24192930635428481 27 415 85 475 50 400
5856 0.21141571843347001 1.8044729478658506 2.4157363980925437 50 37 32 0.37795746566134714 27 549 85 494
5857 -0.16521647479533352 0.44993592802040522 1.6336162498534645 0 0 0 1.3871117044466974 27 475 30 914 85 497
5858 -0.07559229326090694 1.9881479537801678 1.880423387225985 81 70 17 0.069710400051560359 27 590 85 530 50 563 67 584
5859 -0.49710585079506531 1.3500441685593991 2.4799388660501691 0 0 0 1.8052049642566093 27 594 85 533 50 568
5860 0.11176625895479628 2.2354467369817148 1.7452363546214089 44 46 62 0.13625387556469193 27 597 85 535 50 488 67 515
5861 -0.016585651004038957 2.0496888975592333 1.9832167858077945 78 62 15 0.29040919476331339 27 599 85 539 50 569 79 739 67 588 3 848
5862 0.14502210924691966 1.7462827155866452 2.4124221001956636 1 1 2 0.80246773482244671 27 649 85 548 50 621 67 643
5863 0.24647586653815731 1.7635211833533209 2.4760856535215336 37 26 24 0.18587361643240741 27 614 85 552 50 585 67 610
5864 0.43794386665171453 2.5639519186986557 1.8912317686610001 57 38 31 0.17305444436424255 27 617 85 557 79 751 13 925
5865 -0.02233059743412813 0.85374923374336487 3.2798878078543554 0 0 0 1.457171926862574 98 1171 85 558 67 618 79 762
5866 -0.35469361228538138 1.1740976862733299 2.0871731873841131 124 90 21 1.2766780064655694 27 632 85 582
5867 0.45576333277312348 2.5494730175882934 2.0027156645090685 0 0 0 1.6864964806628848 3 858 98 1185 85 604
5868 -0.097135352679674908 1.4673637776926844 2.4956141666012037 197 176 138 1.5643523772205845 27 683 85 614 50 640 67 641
5869 -0.053246143246623197 1.7895288715943192 2.3611574566524327 53 63 87 0.38983841755778054 27 667 85 616 50 641
5870 0.13730932424825507 2.2614129398024656 2.0650557249398371 2 3 4 1.0863950773019371 79 835 85 621 50 620
5871 -0.55904281724651028 1.1117860415285694 2.0872528599150924 0 0 0 2.5091989630668605 27 657 91 1171 98 1132 85 630
5872 -0.25556823149878521 1.6804302160519711 2.0716862032961885 90 68 32 0.84728460807140404 27 658 85 632 67 633
5873 0.016361293339470388 2.2622551096767367 1.2574074196041454 0 0 0 0.81082264469122711 27 696 85 647 50 662 67 700
5874 -0.34942434824179924 1.9299581163338262 1.317623193321714 16 16 18 0.41678321929392959 27 699 85 648
5875 -0.47713581856216292 1.2852780325808302 1.9210205898356558 132 103 33 0.027921815500981013 85 655 50 683
5876 -0.4015217063775019 1.1861486169820821 2.2242822516015806 167 147 134 0.50100201057860794 83 571 91 605 79 274 27 219 85 203 30 796 36 557
5877 -0.056217683049684698 2.1074718843175062 1.7463738571124776 39 18 0 0.57982705343048468 79 67 3 408 27 397 85 362 77 361 58 364 50 383 67 406
5878 -0.81562515378602252 1.3018807642907835 1.60477197348044 0 0 0 1.0184507771496902 17 1555 95 1454 51 1298 85 642 46 1611 98 1281 83 1253
5879 -0.26101468981060483 0.74432065234314182 1.9555251171624839 107 70 10 2.4434671573947155 77 679 58 662 2 713 85 504 36 921 81 687
5880 -1.1512463270973559 1.2658712526609235 2.8574957453481353 231 217 183 0.28884069638618776 46 169 9 217 4 98 47 81 59 63 78 78 54 404 82 353 43 397 32 459 11 502 76 592 25 580 92 628 24 475 93 459 45 772 86 673 100 776 80 598 39 658 28 629 31 641 57 499 18 555 49 214 23 584 84 558 42 426
5881 -0.33410804569960256 1.6769819600106641 2.1346963622459008 11 8 7 0.70021357911987758 85 223 50 71 67 82
5882 0.13238737198118797 1.9766257141198591 1.9314714511647013 8 6 7 0.22818810002516485 85 75 50 76 67 92
5883 0.10014021871878256 2.2404573431084742 1.8302033717976942 58 66 89 0.016023891205878667 27 80 50 83
5884 0.12867135375253352 2.36164485405045 1.7948695924748268 17 16 19 0.03189408168488702 79 108 50 86 67 104
5885 0.10020872750307169 2.3127117198966589 1.8826079085025038 20 17 20 0.071095314424462555 79 122 50 102 67 294
5886 0.09783970167886144 2.2793049539989156 1.9333633319991852 58 66 89 0.06136712852693562 79 130 50 111 67 130
5887 -0.045012149685094184 1.3671629009184449 2.7832504577769797 109 79 65 0.44503561365224958 85 154 50 159 67 182
5888 -0.18385456687955426 1.6882550471011077 1.5516150808011557 255 234 73 0.12642724886757464 79 246 50 183 67 212
5889 0.0785644108501595 2.0240686842300524 1.8123451544748845 77 66 16 0.46364131504727474 85 367 67 250 50 209
5890 -0.37908992072335485 1.3930197652075123 2.3857189095233919 77 81 97 0.045032632693197926 79 298 50 218 67 260
5891 0.11152912565593737 2.2493086369160697 1.7620735155525533 57 61 80 0.079711646145376014 3 100 85 381 50 222
5892 0.13633401969330169 2.3929694574119393 1.7267834521588026 42 46 61 0.13404374581520204 13 120 50 227 67 267 79 314
5893 -0.32234925897942585 2.1990852367091756 2.0061042586996667 86 70 19 1.9144608434109676 3 118 50 235 67 274
5894 -1.1019583453264674 1.1263494512162651 2.9810238257395674 232 215 174 0.20978751592925882 79 534 50 268 67 315
5895 0.37895575728725583 2.2325910308669683 2.0700918889615547 36 25 22 0.091213306630979055 27 343 50 299 67 332
5896 -0.28561800392735309 0.93201959004612345 1.6141761816198692 0 0 0 0.12089145596918589 49 984 50 319
5897 -0.10911882237749213 1.9680586117028742 1.1464477246868556 98 65 11 0.12103686497318535 79 460 50 334 67 364
5898 -0.06771147372385633 1.6564907876441854 1.4179443245862566 49 38 34 0.16671055561663584 79 462 50 336 67 365
5899 -0.24833705546656187 1.3705777687527758 1.9778320916760432 79 53 7 0.13776514336379297 27 378 50 356 67 382
5900 -0.38579689925279465 1.2940685583089864 2.183190609258653 70 33 2 0.077481419108988606 49 530 50 375 67 397
5901 -0.37736592452265738 1.3504684729149756 2.2214823557914953 62 29 1 0.10724475534107329 13 494 85 344 50 378 67 402 67 403
5903 -0.24718874810671632 0.98255518758711435 1.5753001905862021 0 0 0 1.2157188995078072 3 604 49 1101 50 443 67 544
5904 -0.18115652633606222 1.9160100877067394 0.96811395646178589 0 0 0 0.50093326347912404 85 502 50 445
5905 -0.43065446815700736 1.9951493086601473 1.0967507985946647 239 191 56 0.87977675501801134 27 487 50 458 67 551
5906 -0.18573072557004999 1.4066299098137129 2.0379697659371101 118 94 29 0.59623080066655898 27 576 50 475 67 503
5907 -0.35387058107374963 1.4717289486786322 2.3482022653185068 118 94 22 0.18318657361895266 79 662 50 489 67 517 3 790
5909 0.1110027569811903 2.5119337747118964 1.8133328124660719 3 3 3 1.8976888324289316 3 450 13 770 50 500
5910 0.43113845101239251 2.7354134989658596 1.7405253133050635 145 102 79 0.58481746782976618 3 802 50 509 67 531
5911 0.44343949327519677 2.54420206461175 1.9543186690989571 87 85 80 0.71463078826830018 49 866 50 518 67 608
5912 0.080127054804573411 1.222019488378338 2.8298904237322544 38 25 21 0.14508155219305111 85 419 50 519 67 540
5913 -0.16748469862973633 1.663349039061218 1.4138948292652003 155 140 103 0.0073504606695956312 79 769 50 541 67 557
5914 -0.19381071695000576 1.776493705575471 1.8851686915723098 84 69 18 1.1532524197682346 27 528 79 647 50 557 67 577
5915 -0.043150951556518165 1.9385820873163218 2.064357068188333 79 60 15 0.021757017806390454 27 601 50 571 67 590
5916 0.39649475321941513 2.4225950375097138 1.9902199690291593 53 36 30 0.35324709465744225 27 613 50 579 85 555 67 604
5917 -0.195456955249623 1.5125762940678189 1.90632606327933 70 37 7 0.80827252620732326 27 633 50 604 67 572
5918 -0.2053400787822425 1.876129933468569 1.9797670330008093 79 59 10 1.3721653787472197 27 592 79 782 50 608 67 634
5919 -0.047743251793690926 1.5222773617815419 2.3269116572330875 41 44 61 0.81599936564607356 27 640 85 536 50 613 67 640
5920 0.0032421926725542637 1.5648411783018652 2.5608996286128427 181 163 123 0.66018816505273081 27 668 50 623 67 601
5921 -0.5456245081337654 1.6691344274738564 1.63753575294201 8 6 5 0.73402612046780247 79 840 50 654 67 685
5922 -0.59623983362361821 0.89951728714404711 1.7025566075718244 11 14 17 0.43091999473927539 27 690 50 659 67 683
5923 -0.41713609455829032 1.6794173895694375 1.2831982349176838 192 147 38 0.85950862505370251 27 694 50 665 67 698
5924 -0.004195305852649895 1.3126026590002557 2.6384728920401184 226 205 163 0.75018293707025618 27 711 50 680 67 711
5925 -0.39775039220834701 1.9825924984641827 1.3875937338558675 0 0 0 1.6373040157169096 79 870 83 1278 50 686 67 715
5926 -0.059157547533904974 1.9880635560306312 1.0971824081784587 51 38 28 0.29077923242946951 27 365 85 441 50 173 83 745 9 752 79 458 67 197
5927 0.015401043539686472 2.1386936329533888 1.3346103669730827 21 19 24 0.2076110080585091 50 33 79 38 67 36
5928 0.1183499278677996 2.3700360966714933 1.7926322120040783 19 16 21 0.10887241041242203 27 280 50 87 67 105
5929 -3.9398502296950295 3.6493088404895158 2.117611443917208 60 64 81 0.85995578270300455 85 111 67 150
5931 0.11471969238821389 2.2494789146986172 1.761958348233309 57 62 80 0.079248742707923758 27 411 67 262
5933 -0.065026321576659912 1.9375406453026363 2.1165537476694305 32 7 0 0.042696142954187673 27 423 50 245 79 338 67 287
5934 -0.35542094441944794 1.4426027156678829 2.2697868817652651 112 88 22 0.12805289800779363 27 401 50 393 67 415
5935 0.45439772106302068 2.6116893842740909 1.8549089161146894 54 37 30 0.10429543372161414 3 700 50 512 67 535
5937 -0.51581807398110535 1.1399542616564309 2.2418507392527309 0 0 0 0.0027083053591970829 27 515 67 575
5939 -0.55794893605123563 1.2259227201537677 2.2182236714865775 163 152 149 0.57761455027449482 13 1044 50 606 67 630
5944 -0.36740311929729713 1.4646214284294048 2.3021370903324172 77 36 4 0.25209084886126498 13 506 3 424 67 419 27 406 50 395
5945 -1.2411748686978834 1.6788271575570008 2.4378448980159515 254 237 64 2.6241207419918062 50 490 79 780 67 587
5946 -0.9189580945812843 0.63708349332602621 1.6278282592252342 127 66 6 0.42711846247555824 70 25 23 18 42 33 99 291 75 254 89 0
5947 -0.90901717014765959 0.79097142362584438 1.7993738556392795 170 101 16 0.82501938202791614 18 48 23 150 99 92
5948 -0.99424022376266707 0.56470036173514981 2.0167129541159907 254 254 82 0.2676683938435121 18 76 23 161 75 377 99 407
5949 -0.56653087118293521 1.1353380901328403 2.955657701274665 105 93 69 0.0057778296717336426 18 294 23 324
5951 -0.45992117706124341 1.4095591858225036 2.4560831711253552 183 180 191 0.38505852200075957 70 181 23 497 42 120
5952 0.083709608268346225 1.9477865951698927 2.364564746023667 73 83 84 0.32774270326194627 18 759 23 507
5953 -0.46794051992477137 1.1713225367624116 2.9426239897377222 226 212 176 0.033572243227964899 18 611 23 609
5954 -1.0811787407888491 1.3166549109140913 2.8396474511809808 242 222 176 0.52864501836514743 70 652 93 612 23 765 84 637 42 536
5955 -1.2042142476263873 1.1103535975426391 2.987707020910686 232 218 181 0.68609956543791761 70 723 23 829 42 606 99 787 75 755
5957 0.37729437736391808 2.7353607706855496 1.7682865929177958 162 159 142 0.39010963455455766 49 1185 70 837 23 1069
5958 -1.3732293625660636 1.0181893908528705 2.9603921478805137 0 0 0 0.36666197331783312 49 1051 23 1080 89 643
5960 -0.65001323713034398 0.99959205708297061 3.0424009723244905 247 222 172 0.29453986220834133 70 883 23 1087 42 706
5961 -0.27627800953969234 0.82445097507625342 3.212508254263438 232 206 164 0.24485053010820015 18 1194 49 1195 23 1160
5962 -0.013029683244568685 1.6169986785580668 2.481457249065691 0 1 3 1.0944724310162111 18 1215 23 1177
5963 0.17753228169789748 1.1726017559483868 3.0364905524342065 0 0 0 1.8614852352126854 18 1260 23 1200
5964 -0.16411461623888762 1.7325636205528061 2.1899085610857569 45 35 10 1.9959163167342746 18 1259 23 1201
5965 -0.56469152346894458 0.59205875812551889 1.8833397558707541 255 248 78 1.3184799835312018 23 1203 99 973 75 940 89 736
5967 -1.2197186192373481 1.3421207917280864 2.7275633462513507 43 21 14 0.25192266116305156 91 101 9 176 18 508 13 130 49 163 3 132 23 560 93 224 70 207 99 217 75 430 89 419
5969 -0.96508110444143747 1.6874274037541772 2.3775389063009444 31 28 24 1.4314023898135506 32 1005 84 328
5971 -1.0246662278572725 1.2378848109251124 2.8857271023739539 249 226 176 0.005554293886723979 15 754 84 644
5972 -1.0380163634351847 1.1851767724230515 2.9269339133286985 247 224 177 0.021520780312745132 15 771 84 653
5973 -1.1336096897399659 1.0915207169717902 2.9942663754993193 246 225 179 0.73889928005493732 15 799 84 685 42 604 70 724 99 779 89 532
5974 -0.27717074430826727 0.28357140309231882 1.7018791776432753 255 251 78 1.7850819551556565 44 962 84 719
5975 -1.4233726281444306 1.0128761752100783 3.0380774199407594 0 0 0 1.3858578226367051 93 854 84 756 42 657
5976 -0.97170877953182966 2.9658822039273236 1.7405213890619224 0 0 0 1.1173655012096846 44 919 84 777
5977 -0.93140426663803233 2.755466364243405 1.7892626915873697 152 103 78 0.016015898713470908 32 1102 84 780
5978 0.074804994248542284 1.1658447562526877 2.9089351461262738 101 71 60 0.92643995070015206 40 1248 24 1140 15 1055 84 794 31 806 72 873 66 1012 22 851 14 845 71 773 42 696
5979 -0.0017473635596923151 0.86013438362779682 3.0980019964215972 147 99 75 0.63182980346009976 68 787 60 897 92 768 15 903 84 749 39 833 28 812 31 809 72 958 66 936 22 856 14 847 61 954 12 945 6 992 56 840 19 763 70 885 52 935 69 911 42 704
5980 -1.2034406582688053 1.097087279756209 2.9893085742364445 236 220 181 0.69244351313688712 40 895 44 753 24 821 15 789 93 857 84 689 93 640 70 722 24 663 42 605 99 786 75 754 69 835
5981 -0.11580835793648006 1.0791535091139286 2.9918090517469769 231 216 178 0.47650966762605063 87 1281 40 1154 94 1052 24 1076 15 876 93 1064 18 1146 70 927 23 1089 84 746 28 702 31 728 57 602 72 644 22 634 14 654
5982 -0.69008574192615868 0.75673345174974604 1.5298617752879815 10 12 15 1.4154071446484029 19 1 8 4 73 3
5983 -0.72043685888018161 0.83378127523927092 1.5875188102010593 158 162 186 0.63758643850995045 16 16 47 3 8 5
5984 -1.0307428393881879 0.66306679508658495 1.8437492309725902 236 172 46 0.051718081906269364 16 371 8 12 73 12 35 12
5985 -0.27784549662945862 1.1351608529596486 1.8691944638083617 102 63 7 0.78197756526694795 47 360 8 32 73 42
5986 -0.55868301328399028 1.8868609782287902 1.6259815415194692 81 47 4 0.19053817239604331 16 150 8 103 73 96
5987 -0.87474710358561358 1.5499886991257354 2.2876670008400657 231 214 174 0.99135629379912726 47 479 8 139 73 121
5988 -1.1042351056873336 1.6370248129615086 2.5777200141988121 52 34 23 0.18036846809864057 16 267 8 233 73 202
5989 -0.54275915584521262 2.4331915201275693 1.5841599936528337 25 19 7 0.14431578931371108 16 263 8 252 73 223
5991 -0.71982923621982575 2.3864293163423986 1.8310342057427245 63 67 81 0.20441561988321466 16 292 8 288 73 269 35 200
5993 -0.33291072079560718 2.882241871635272 1.6575808573622097 162 142 113 0.12476161971292103 47 338 8 335 73 315 35 235
5994 -0.9445424187372109 2.573494410877164 1.8748785131474708 62 40 30 0.21745060657426882 16 341 8 337 73 312 35 239
5995 -0.94347218000247346 2.5736464439627871 1.8767724373192891 62 40 30 0.22414291750672322 16 340 8 338 73 313
5996 -0.56668008698030703 2.780342302281209 1.7553379814814809 122 116 100 0.38000542524165626 16 327 8 344 73 317
5997 -0.66450120763795206 2.8316367155672824 1.7168224075991225 119 117 103 0.071010788899568106 47 626 8 356 73 329 35 247
5998 -0.65075695865834182 2.8873446156982454 1.6775727574908836 119 118 104 0.2695085585155475 16 348 8 364 73 334
5999 -0.77429412621037608 2.8477570035533546 1.7066068375256509 223 210 173 0.059123405318984634 16 622 8 365 73 335
6000 -0.38056106508487159 1.1103885322238631 1.9236262322764461 54 54 63 0.10520781461693914 16 381 8 402 73 370
6001 -0.3740237748755828 1.1522183377099269 1.9104395097277951 191 130 34 0.12438703219095695 16 384 56 297 8 403 73 371
6002 -0.58724089081677255 1.8049829075764097 1.3133506971745927 93 85 81 0.22089330726674097 16 426 8 429 73 389 35 57
6003 -0.50931570583913721 2.0212537721416677 1.3890756458453253 254 220 57 0.62360085195572579 16 146 8 454 73 92
6004 -1.1490812810108664 1.3796195703170671 2.6962212931115968 232 215 176 0.70669713671703038 16 829 8 496 73 449
6005 -0.86145928005554728 1.8943834367763206 2.3170071207816529 140 134 150 0.2441354619638611 16 259 8 525 73 472 35 636
6006 -0.96989285771159139 2.4897421536685216 1.9288765777769774 104 69 51 0.26930807535107337 56 531 8 605 73 541 35 233
6007 -0.95480148152175148 2.5525835078021011 1.8674662879272395 147 97 69 0.22166533250641926 16 336 8 614 73 550
6008 -0.6796891252920062 2.7766682060787886 1.7581187307209762 116 114 101 0.19631840886108948 16 334 8 626 73 567 35 244
6010 -0.72862337606597971 0.8690155601468661 1.5713367703055479 25 25 26 0.47495152682615571 16 637 8 645 73 593 35 7
6011 -0.87088529299898032 0.76213543341374235 1.6720201333498073 123 102 26 0.54108497956527546 16 639 8 647 73 595 35 509
6012 -0.87088529299898032 0.76213543341374235 1.6720201333498073 123 102 26 0.54108497956527546 16 638 8 648 73 596 35 508
6014 -0.49249697117649449 2.0426901482573965 1.4852268539041258 153 146 160 0.48092110416167927 16 957 8 725 73 673
6015 -0.44396112126986109 2.8856073341948814 1.6556311980795035 188 178 151 0.4100329063842546 47 823 8 793 73 566 35 241
6016 -0.83711675070271696 3.0032244346974504 1.6106539040388561 105 107 98 0.42765155894884221 47 638 8 799 73 752 35 767
6017 -0.23310054934320024 1.8540727041212 1.0150421808129002 255 241 71 1.7592928025838699 16 1096 8 826 73 877
6018 -0.64483546931650504 1.759125043399747 1.660155079268401 159 103 20 1.2225752180808216 56 862 8 852 73 807
6019 -0.76510557604961715 0.88587469581018496 3.1141161105973474 249 226 181 0.52234217690516782 16 1045 8 860 35 810
6022 -1.0120599021060139 2.7455793610203316 1.8259984015157362 0 0 0 2.0853803355408838 19 951 8 978
6023 -0.83034632799720831 0.83313788238274122 3.1427078839330367 0 0 0 1.8091460112475157 56 1057 8 1016 35 861
6024 -0.83235701917021432 1.6048921856334371 2.2500448773543726 25 23 20 1.7219291910336638 56 1031 8 1021 73 966
6025 -1.2765277247088624 1.0394332242440185 2.9719878699589217 203 179 138 1.8871634576944085 19 982 8 1022 35 818
6026 -0.8875678770530786 1.883006951772265 2.3893613995454808 18 17 14 0.56711945772751082 56 1064 8 1052 73 998 35 893
6027 -0.69141298686873587 2.5540278266520979 1.7433882747454179 160 153 167 1.4649635021455325 16 1149 8 1074 35 910
6028 -0.83552180792517328 1.86710582519567 2.2080222879707168 79 85 103 1.8015764771864151 56 1117 8 1085 19 1023 71 972 73 1025 10 832 35 933
6029 -0.54830936918402973 2.4040067708761059 1.439045288819838 248 188 50 0.62633705068166401 16 1196 8 1093 73 1032 35 930
6030 -1.0258623843361072 2.5769103126047104 1.982679184124535 0 0 0 1.386031908674862 19 899 8 975 72 884 14 760 56 1005
6032 -0.66148737302659022 0.70822822688442644 1.5567813976140996 150 152 161 0.068842269539298631 8 2 73 1 35 1
6033 -1.0146779522336473 0.70661510059008947 1.7301628857249638 159 114 21 0.076338404827499762 8 9 73 7 35 9
6034 -1.0398235384101246 0.6356318251661176 1.8279771799737623 167 111 17 0.044884691828848168 8 10 73 8 35 10
6035 -1.029352272428016 0.66091855402610455 1.8460223740984674 234 170 46 0.050640763728984302 8 13 73 13 35 13
6036 -1.0702341203640264 0.71185666061193453 1.8586525382950834 174 124 23 0.092416416001148541 8 19 73 16 35 18
6037 -1.0702341203640264 0.71185666061193453 1.8586525382950834 174 124 23 0.092416416001148541 8 18 73 17 35 17
6038 -1.0346587021138389 0.70764442765565294 1.8650211524124891 170 119 21 0.037192881199362905 8 16 73 18 35 19
6039 -0.78019471417805353 1.106171768240479 1.5997194163923725 69 72 91 0.072127220463980832 8 393 73 28 35 274
6040 -0.29090344193471862 1.0486564004216206 1.8026965888758666 117 71 8 0.10762874118941641 8 25 73 30 35 26
6041 -0.26978532216749079 1.1052063791045672 1.8087078986896541 104 65 7 0.014962243746590871 8 28 73 34 35 33
6042 -0.38464039262657229 1.0368976581918163 1.9150477091717084 130 77 11 0.056660254065554055 8 398 73 35 35 294
6043 -0.78918487071752219 1.1597499126600803 1.8038312352827068 154 92 13 0.17979160446190412 8 406 73 44 35 302
6044 -0.79205021373346085 1.1806795341482008 1.8769240498290922 66 68 85 0.10723356435597668 8 52 73 53 35 315
6045 -0.41382159316531825 2.0256498606316087 0.9494817156637585 255 242 66 0.24829200347931243 8 53 73 55 35 41
6046 -0.59745061749734985 1.7759566498787849 1.3056329949805803 91 90 100 0.086167778150979715 8 62 73 59 35 52
6047 -0.32507589771360262 1.3660956911582736 1.946695805339582 152 115 29 0.15241849496571705 8 64 73 63 35 66
6048 -0.10214650191636049 2.0992621792560113 1.1756687847426133 113 88 21 0.082261544202948664 8 76 73 74 35 62
6049 -0.70499280555586763 1.2646764365011722 2.1559983684747435 90 84 86 0.5538976675411631 8 79 73 76 35 85
6050 -0.75628051084222514 1.5233034142787873 1.9523737431558994 251 196 52 0.36674680596279841 8 449 73 87 35 360 16 706
6051 -0.68316594334398373 1.8054111074973773 1.7380572481504994 148 88 7 0.12461643093186765 8 108 73 99 35 98
6052 -0.11396795312149346 2.1970910174143299 1.3774204418582143 123 76 12 0.20421914471401878 8 465 73 102 35 364
6053 -0.53719973156099898 2.2483221251754553 1.2393395580980486 163 160 176 0.091100939320358384 8 119 73 112 35 96
6054 -0.53719973156099898 2.2483221251754553 1.2393395580980486 163 160 176 0.091100939320358384 8 120 73 113 35 95
6055 -0.54532984919765171 2.2401173139676378 1.2618544005473487 63 67 83 0.10549530917735066 8 477 73 115 35 372
6056 -1.3252168698036464 1.0513412449650021 3.0057136368301132 88 56 41 0.25791405868919132 8 164 73 141 35 138
6057 -0.55673134806196434 2.2602871075756923 1.392861983190441 252 224 64 0.1399107745352447 8 163 73 142 35 115
6058 -0.84684021431329126 1.8760059098086246 2.2450405336879089 161 154 167 0.090391023901757642 8 228 73 197 35 404
6059 -0.84684021431329126 1.8760059098086246 2.2450405336879089 161 154 167 0.090391023901757642 8 229 73 198 35 403
6060 -1.2199087036509237 1.5956108849695934 2.6086856223599186 111 76 61 0.13203667496108057 8 237 73 204 35 173
6061 -1.0989503060142203 2.3863979523344874 1.2878675933426931 212 149 34 0.32229422052588708 8 526 73 212
6062 -1.2117470877076897 1.6578143804672001 2.5533764346287415 110 75 61 0.12679728196993686 8 240 73 213 35 175
6063 -1.1950602913048747 1.7121835505513365 2.5160661434838745 110 75 61 0.058528441620397227 8 248 73 219 35 182
6064 0.22423941311604223 2.5288447293617473 1.9180267825156203 73 70 60 0.14009409655275343 8 255 73 233 35 179
6065 -0.68834292292182175 2.4796281707662859 1.6961672067844589 137 129 140 0.062656829142023987 8 293 73 274 35 197
6068 -0.31188522046211598 2.6019922253796852 1.8478656688999955 88 76 59 0.14879992325118138 8 302 73 288 35 219
6069 -0.6888421987985156 2.5601559900080066 1.8600284758020826 15 13 15 0.20961535613728013 8 318 73 298 35 469
6070 -0.26733425035386821 2.7873614442460992 1.7045345196806112 150 138 112 0.12982418665258008 8 319 73 301 35 227
6071 -0.96037131561341349 2.5198622637344492 1.9119650974591658 41 25 20 0.071683462765484429 8 610 73 308 35 234
6072 -0.65610687281903435 2.8683130912789441 1.6749795411566413 227 213 177 0.13664245653417012 8 628 73 332 35 248
6073 -0.7671972828401814 2.8459419309237632 1.7177410108057243 224 210 173 0.041434551484095583 8 366 73 336
6074 -0.52781917930105526 0.68713247184026582 1.5701299485525682 152 153 157 0.023220092405944914 8 1 73 348 35 262
6075 -1.0329133478316108 0.69471095863748511 1.709274624105465 255 209 56 0.17894348423624354 8 380 73 352 35 266
6076 -0.98172535751901346 0.78272024135731111 1.6517137454831547 154 122 36 0.31364663482588134 8 649 73 353 35 510
6077 -0.26173219959268235 1.0488231540477908 1.6037963814002258 110 69 8 0.095305896605470952 8 382 73 355 35 269
6078 -0.96468935940976808 0.82955274017836378 1.8474710939476651 123 84 16 0.12870853729136314 8 391 73 357 35 275
6079 -0.29483528912540308 1.0356952465754641 1.7356440249274105 50 47 48 0.057414837622584758 8 388 73 358 35 276
6080 -0.29483528912540308 1.0356952465754641 1.7356440249274105 50 47 48 0.057414837622584758 8 387 73 359 35 277
6081 -0.41010746522513891 0.90557320352261184 1.8950020809465233 42 44 52 0.069661324689941878 8 392 73 360 35 282
6082 -0.39270472226242725 1.0140954965334901 1.8901051878407373 183 132 36 0.11039059689702017 8 396 73 363 35 291
6083 -0.39270472226242725 1.0140954965334901 1.8901051878407373 183 132 36 0.11039059689702017 8 397 73 364 35 290
6084 -0.38353145875875672 1.0838694296163822 1.9006943157544243 192 133 35 0.093520905803574153 8 399 73 367 35 298
6085 -0.56308777235877516 1.7366341835789918 1.2830366305079246 66 67 81 0.090716477809466081 8 418 73 374 35 306
6086 -0.75618843287902882 1.2310628666796473 1.9004362530913128 102 58 6 0.020526701020730845 8 419 73 376 35 540
6087 -0.53079955368393883 1.7836554065909984 1.2951445357372922 105 64 9 0.13476513430515005 8 421 73 380 35 313
6088 -0.40320108812159844 2.067976551084465 0.97030847656202257 241 190 50 0.090679126828790715 8 423 73 383 35 305
6089 -0.59464874024103964 1.8467432867043916 1.3193137641455459 176 181 206 0.090660631829131866 8 431 73 391 35 327
6090 -0.52244534589878133 1.4825404561202331 1.8947234333202032 124 97 24 0.15629819242072537 8 683 73 395 35 340
6091 -0.66642606267158777 1.2971340205827833 2.1493243475568962 227 168 44 0.12018080638714208 8 688 73 399 35 582
6092 -0.73353219368133571 1.5045717149272826 1.8618773938840956 166 103 16 0.064249478347578437 8 440 73 400 35 346
6093 -0.58387354497132615 1.5326202786925085 1.9106437702101216 28 19 15 0.13417475507028831 8 443 73 403 35 584
6094 -0.74447923093604729 1.5053115242822159 1.9025764362093665 255 198 54 0.039259973126918174 8 445 73 404 35 351
6095 -0.73947798748760141 1.5326666708931964 1.9279541113979681 34 30 34 0.049165129253565365 8 447 73 408 35 356
6096 -0.73889285071347877 1.5698589042294153 1.9269826940239181 252 196 54 0.066332329210761737 8 450 73 411 35 362
6097 -0.71945891328850553 1.5872005772808675 1.9237101579755411 103 61 8 0.17783994437392306 8 452 73 413 35 90
6098 -0.53411217446213277 1.8566245531643646 1.598708231944189 112 72 10 0.22426912321895109 8 451 73 414 35 355
6099 -0.77953223380690406 1.6108870210143333 1.9273130219973293 205 207 230 0.039894390629800401 8 460 73 419 35 369
6100 -0.70586183527259061 1.9026899119503986 1.6555870029691724 189 195 218 0.22371648248948353 8 468 73 425 35 373
6101 -0.50388591866591648 2.2519627011615064 1.231926609146367 79 80 99 0.097344877053091958 8 471 73 426 35 366
6102 -0.12587083601424287 2.2492192286954316 1.4298321227703152 54 53 58 0.093991026986357182 8 728 73 428 35 602
6103 -0.053007447607890536 2.2908557582388336 1.40355928315823 160 122 28 0.12231305221161552 8 479 73 430 35 375
6104 -0.53833988446528358 2.24932717521264 1.2928389040853812 158 156 172 0.052737535455445211 8 483 73 434 35 374
6105 -0.47276496157448822 2.2749246478501446 1.3320847693583076 153 91 25 0.1588598931527517 8 486 73 436 35 606
6106 -0.96706375021725854 1.6183919144018535 2.233436335731612 7 6 7 0.42901271646089856 8 736 73 440 35 383
6107 -0.69904467932136605 2.0296578865731987 1.7215644567055925 254 237 59 0.15112909893772464 8 490 73 443 35 123
6108 -1.2863819967692405 1.2863157481420062 2.802537991354491 152 103 78 0.15387018703069436 8 497 73 450 35 396
6109 -0.89934750104241468 1.6939894795813657 2.3768312278554511 9 7 7 0.054101324592849422 8 503 73 452 35 395
6110 -0.89934750104241468 1.6939894795813657 2.3768312278554511 9 7 7 0.054101324592849422 8 502 73 453 35 394
6111 -0.50544799476584212 2.4426007174777102 1.3572058420993023 79 87 108 0.11506009313562023 8 213 73 459 35 130
6112 -1.1282615033256622 1.5491708804118214 2.6320362669779258 49 32 25 0.16452385832061034 8 746 73 461 35 406
6113 -0.33048672203587309 2.4393601058935155 1.4858553578588107 77 59 10 0.18168479269927784 8 220 73 464 35 132
6114 -0.91493603593077766 1.8011332265243172 2.3509018071045302 5 5 6 0.45773603121795714 8 512 16 578 73 466 35 407
6115 -0.96093105184212557 1.7622231666376176 2.456700011570335 233 214 172 0.10549129059509189 8 520 73 470
6116 -0.88447121940992701 1.8366677515611542 2.3839277265015331 8 6 7 0.21803833105049333 8 523 73 471 35 417
6117 -0.70539769376187778 2.222407055835006 1.8838963220410359 132 77 10 0.06580783542508406 8 532 73 479
6118 -0.23504853960177619 2.5131110700914179 1.6112215036110737 2 1 1 0.45821318542285483 8 752 73 480 35 158
6119 0.34413817308197198 2.5419842977230278 1.900122746076822 40 27 21 0.19280692890736359 8 529 73 483 35 174
6120 -0.45352198069184008 2.5307830699974065 1.499303467619558 109 111 126 0.13741571431252589 8 535 73 484 35 405
6121 0.29241258227910699 2.6127617199592161 1.8721785264518525 101 101 88 0.098334572267731332 8 542 73 491 35 427
6122 0.23391124735138888 2.6475096055401774 1.8448641533065036 121 125 118 0.11083368602013478 8 549 73 499 35 194
6123 0.14957507588157015 2.6099435582481085 1.8779806869381572 112 114 107 0.054678510785095474 8 552 73 501 35 436
6124 0.050940338250478813 2.577324695285748 1.8948179671637202 102 102 90 0.11525215592294741 8 555 73 503 35 437
6125 0.078074084639361219 2.623741836639641 1.8694025302988118 114 114 101 0.074900022934762209 8 559 73 507 35 442
6126 -0.31523481117472762 2.5944528963500941 1.9228690478785488 71 67 56 0.33076738214863671 8 582 73 524 35 654
6128 -0.36712622237736736 2.6486741167399899 1.844326495327864 115 111 94 0.024840524622620794 8 590 73 531 35 468
6129 -0.35820281552773253 2.7056676361616523 1.7991972306273185 128 122 103 0.094410554546573808 8 596 73 536 35 473
6130 -0.59479660087584274 2.6657085453951823 1.8323315169843952 70 67 60 0.16178043515813659 8 786 73 543 35 479
6131 -0.41183414457889167 2.771341141959168 1.752465846751142 135 128 110 0.030081349540716288 8 604 73 547 35 478
6132 -0.62232020134430266 2.7093117070963757 1.8028720162251655 101 102 91 0.043055094292009315 8 619 73 554 35 488
6133 -0.92967798500087084 2.5938020501191072 1.8578238316722866 147 98 69 0.17079613916062322 8 789 73 560 35 490
6134 -0.85425272634046778 2.6755026053135262 1.7822153013052568 39 27 24 0.10728782682088456 8 792 73 563 35 242
6135 -0.74514967501121454 2.9645415183898525 1.6193016568431728 223 211 175 0.042834866618039889 8 634 73 581 35 498
6136 -0.87931492820362533 2.9897372195958196 1.5830132633481553 73 50 38 0.045500092830449618 8 635 73 584 35 499
6137 -0.28727493375398677 0.6622536537086029 1.6515899097755995 22 25 30 0.24363756706237458 8 377 73 587 35 264
6138 -0.89837077050450043 0.67395872325436901 1.6132513508433235 151 135 53 0.33921564267201681 8 641 73 588 35 502
6139 -0.98219307206645334 0.72175635126283422 1.6171304888626501 151 124 40 0.097540575636828053 8 643 73 589 35 504
6140 -0.89100901955089673 0.78774661722604544 1.6987905354769894 157 134 46 0.20788099495388032 56 24 73 599 35 512
6141 -0.32150967724749241 1.052543067143191 1.6290790301636018 94 84 78 0.080159584160165567 8 651 73 601 35 513
6142 -0.74704587202534134 1.1407599145931644 1.5431700395335171 103 64 8 0.068354667076029135 8 654 73 605 35 515
6143 -0.29087943324999405 0.95595726258882396 1.873202385574662 0 0 0 0.29836413111065935 8 920 73 606 35 521
6144 -0.28563099990778806 1.0700044585152473 1.7624712284650341 182 138 37 0.031001009367680465 8 655 73 608 35 519
6145 -0.77244236743716521 1.1400887760510985 1.6169221672514382 244 193 53 0.10277688348557747 8 657 73 611 35 517
6146 -0.80670989872501919 1.1529776089854229 1.6355887655617298 102 101 110 0.14725083469439432 8 661 73 612 35 523
6147 -0.28725628642811768 1.0844169264298502 1.8294094551914266 182 138 37 0.040088702910537469 8 658 73 613 35 526
6148 -0.44539456243962561 1.9653028952053284 1.0233486110245276 174 120 24 0.16845728284845449 8 667 73 618 35 299
6149 -0.69775589350315248 1.5059628454766136 1.6622672620002299 115 70 9 0.091990402886380981 8 673 73 625 35 549
6150 -0.47481880539793409 2.0988522772504989 1.0637007528658975 254 197 54 0.092599883972163968 8 684 73 634 35 546
6151 -0.47481880539793409 2.0988522772504989 1.0637007528658975 254 197 54 0.092599883972163968 8 685 73 635 35 547
6152 -0.76746380598437924 1.4974925629942415 1.803226646562367 252 191 52 0.3158691439540931 8 843 73 639 35 573
6153 -0.57219248623844843 1.7923321374115926 1.4848989417358422 171 106 21 0.15584045246316083 8 686 73 641 35 567
6154 -0.71216348743191882 1.5498227143328775 1.7930728989880464 114 73 12 0.16893615397788364 8 691 73 646 35 343
6155 -0.11648988624038734 2.1145408594638764 1.2281264745053 178 129 31 0.094755880145176399 8 695 73 648 35 569
6156 -0.11648988624038734 2.1145408594638764 1.2281264745053 178 129 31 0.094755880145176399 8 694 73 649 35 570
6157 -0.7249817462079714 1.5362889493303822 1.8908585600957051 254 197 54 0.041024178608318758 8 705 73 655 35 716
6158 -0.5799248115706952 1.8135571217883326 1.5487754750658849 178 109 19 0.1214422785566797 8 701 73 656 35 581
6159 -0.7112173700088319 1.5664706365087571 1.8657860406533457 112 71 12 0.094950525461237792 8 706 73 659 35 587
6160 -0.12928180891207305 2.1681203036340038 1.3151826940982394 55 55 63 0.083995864866894712 8 712 73 664 35 586
6161 -0.47688250280982092 2.1843918928221115 1.2104974367893859 172 106 19 0.13967181903809581 8 718 73 666 35 585
6162 -0.12046516061453535 2.2014961687195744 1.336148262547145 196 138 33 0.04208063312366514 8 719 73 668 35 590
6163 -0.68498589676214972 1.7610826443165444 1.7863815801029235 235 178 46 0.30362358472827594 8 721 73 669 35 596 16 955
6164 -0.47066093280124527 2.2139621055939167 1.226625114091938 254 215 58 0.15330399153844046 8 722 73 670 35 589
6165 -0.67982119104261429 1.9992281175317386 1.6088940472689952 254 197 54 0.15293053239100879 8 730 73 678 35 729
6166 -0.11251474367277431 2.375478699092918 1.4729334854544978 115 119 135 0.26080022313908918 8 737 73 690 35 614
6167 -0.89231675678136102 1.6996988975862222 2.3040291914157272 127 121 133 0.17445480158307583 8 740 73 692 35 620
6168 -0.10298515959466634 2.4388347646209878 1.4729613067922125 94 112 146 0.10505298668130392 8 742 73 695 35 129
