# 3D point list with one line of data per point:
#   POINT3D_ID, X, Y, Z, R, G, B, ERROR, TRACK[] as (IMAGE_ID, POINT2D_IDX)
# Number of points: 356, mean track length: 4.9394915861081277
2950 0.16671169459200019 0.40387727710726534 1.9676290686615594 188 195 144 0.51428259403711341 34 1455 35 1881 59 1916 37 1905 100 2055 85 1835 26 809
2952 0.095180872396637139 0.44355057771618872 2.0557160378670902 79 146 78 0.023887224657816973 74 1807 35 1888
2953 0.033897234336327402 0.44776694793898314 2.0680371641933717 80 158 87 0.23311606368291107 74 1810 35 1890 37 1921
2954 -0.025956402043845483 0.5132679781095123 2.2920669800367208 70 142 78 0.26142217137822021 34 1886 35 1907 77 1548 59 1951
2956 -0.88996651781081282 0.38967240730691666 2.7143296772937018 182 157 89 0.22771241857315289 34 1902 35 1921 59 1594 37 1598
2958 -0.14546190521023974 0.69044852847155369 2.7739351016634104 73 128 66 0.27658209459201316 34 1936 35 1962 82 1633
2959 -0.43520070434988628 0.74911816221844818 2.660336294173975 67 120 59 0.37573230817503517 34 1941 35 1965 82 1669
2960 -0.51584832886379439 0.85283111393597144 2.6107925545967743 56 110 52 0.30920343497404956 74 1887 35 1978 83 1475 12 1526
2961 -0.8854021398677141 0.93875121834057185 2.5565077336819741 254 234 132 0.31700708416238543 74 1891 35 1985 37 2052 30 855 70 693
2962 -1.1881986132933824 1.2000365847667873 2.5768960923147555 108 185 89 0.284319889809247 34 2022 35 2021 59 2110 37 2106 100 1947 77 2181 82 2351 85 2210 55 1960 61 2363 76 2123 52 1692
2963 -1.0382582623870003 1.2063462513422085 2.552193397833264 204 209 118 0.10433402140524654 95 1835 35 2022
2964 -1.0447944973596779 1.2401568427611172 2.5585245904196645 235 223 135 0.20710802793443095 63 1854 35 2029 100 1948
2965 -1.5679968888066489 1.1628879372618108 3.3294763810009487 243 253 255 0.81391430142938714 74 1637 35 2040 77 2200 59 2145 37 2153 100 2007 85 2067 82 2191 61 2186 49 1667 60 2156 79 2072 20 1979 53 1859
2966 -0.23768851419927928 1.372807670245628 2.6924044625458525 149 157 101 0.78798319492590974 95 1860 35 2050 8 1330 31 1264 30 845 78 1151
2967 -0.50016102012367447 1.4424726822242755 2.6116079250756576 103 136 77 0.21154480023499422 34 2053 35 2053 77 2154
2968 -0.44109855674043807 1.4896731393887834 2.6270579920493606 215 210 133 0.57537218069715601 74 1972 35 2056 64 1719 7 1495 75 1226
2969 -1.0174572501826218 1.531848856127529 2.7551952283633536 147 124 103 1.9275825065609695 74 1282 35 2065 55 1264
2970 -0.17569124022811541 0.098409951910156127 1.6335720612917466 141 112 84 0.74239166655536248 74 1756 35 2083 12 1080 2 718 37 2159 100 2028 85 2076 64 1775 7 1556 27 1700 80 1340 75 1288 46 1221 39 1058 69 854 11 862 47 805
2971 -0.28943743769945335 0.32081089023657805 2.077103693805296 70 142 79 0.17115633596291127 34 2113 35 2111 77 2241
2972 -0.23871132479458379 0.34690802280598149 2.0921380154802529 71 142 78 0.05126566647720579 34 1865 35 2116
2973 -0.22922651578218126 0.40801241647380893 2.2582638321963282 71 143 80 0.20239776412779104 34 2119 35 2126
2974 -0.42784986848901496 0.32866219851623113 2.5225242383309823 83 130 75 2.6366025134625342 16 804 35 2129 83 1416
2979 -1.1253889596819762 0.99473744208561254 2.5522926625035267 100 158 75 0.39112333445818959 34 2183 35 2177 37 2274 100 2112 85 2185 59 2260 60 2095
2980 -0.99216550869773423 1.0707316896839949 2.5415359576972358 87 140 69 0.19065519120805285 74 2094 35 2181
2981 -1.1631884610971879 1.1552776433224796 2.5638691654045478 108 181 88 0.2399518973445649 34 2201 35 2190 100 2124
2983 -0.82968543549733131 0.64595062458529096 2.6187360168451974 0 0 0 0.22118304236590267 49 1998 63 1986
2985 -0.50994357614768127 1.571484471826319 2.6488625112359543 129 164 94 0.56745104263194168 34 2240 35 2229 76 1586 64 1913
2986 -0.038318943810932059 0.15265671602133804 1.5857881572720658 104 78 53 0.78202957952546071 34 2084 35 2242 59 2158 100 2189 64 1951
2987 -0.14277144933824421 0.22051007768804337 1.7814819695836455 69 132 70 0.11825636203361528 34 2255 35 2248 59 2338 37 2177
2989 -0.81438850782491512 0.15605655149306563 2.5490601008889162 195 191 198 0.46625178683439944 74 2024 35 2256 59 2210
2990 -1.1939972828567806 1.0547416677887484 2.5572426173218616 195 203 110 0.18914386762449487 74 2204 35 2292 85 2386
2991 -0.96706155562800278 1.328105201211331 2.5718992401353735 191 202 116 0.92528254199671434 34 2306 35 2307 100 2250 85 2393
2992 -0.45619034006887438 1.4977019401874259 2.6406193630254755 222 221 141 0.19212876524165673 74 2234 35 2321
2993 -0.61084085826005274 1.5428139230434053 2.6262374419305528 163 190 112 0.74281110597136923 74 2237 35 2323 12 1817 16 2025 59 2396 55 2081 64 2033 83 1759
2994 -0.14678072491503083 1.4850190128918439 2.9728945780325482 255 255 255 0.58474284221310135 74 2159 35 2325
2996 -0.14192010593974752 0.36359896169953881 2.0097977985012943 129 157 104 0.098763334709602649 34 2330 35 2339
2997 0.20528978288856373 0.41050872735108201 1.9947955927212078 148 147 159 0.85192472783367446 74 2252 35 2342 59 2411 100 2271 85 2349 27 1919
3000 -0.065782171760297742 0.35203815767656499 1.9360363148172939 67 135 73 0.72582591812065722 34 2390 35 2386 77 2567 37 2457 59 2456 85 2412
3001 -0.28060573006867506 0.2112634839024381 1.8528958455735356 112 146 91 0.65380466022833073 74 2333 35 2420 100 2376 37 2498 85 2448 79 2299 26 2236 53 2040 93 2008 18 1958
3002 -0.42571519415319214 0.27616124246433077 2.1298927472908407 70 143 80 0.99326680902404785 34 2424 35 2423 77 2662 59 2556 37 2563 100 2443 85 2501 82 2635 61 2676 76 2391 64 2216 60 2437 7 1933 79 2352 26 2318 20 2213 27 2064 65 2167 53 2106 93 2072 18 2025 80 1682 75 1610
3004 -0.10142824708152937 1.4541743267235676 2.7535672948924068 238 229 228 0.89658222611353455 74 2328 35 2464 12 1906 100 2365
3005 -0.4023060098157813 1.5930481995637884 2.6601015194749293 80 146 67 0.71259167872967955 74 2376 35 2468 37 2624 85 2560 83 1903
3006 -0.2371976036105711 1.6459645416961219 2.8836708129972899 255 255 255 0.39879513460729044 74 2331 35 2469 100 2420
3008 -0.35530702743063958 1.7859876244794533 3.4806716974795879 240 226 214 1.4259901802542883 74 2443 35 2542 12 1949 59 2618 37 2632 100 2504 85 2574 7 2016 64 2278 80 1760 75 1688 46 1593 39 1559 69 1319 11 1293 47 1204 47 1211 57 959
3010 -0.8491782568274866 0.21701019013199113 2.5508805352449855 0 0 0 1.6938909708024699 74 2391 35 2544 12 2004
3011 0.11591246444713135 0.24492628713366377 1.7093465123712255 188 188 198 1.3253861384562871 74 2454 35 2552 77 2744 59 2627 37 2642 100 2506 64 2267 7 2002 26 2310 79 2344 20 2204 27 2055 53 2090 80 1745 75 1659 46 1579 69 1294
3012 -0.84452886613043832 1.0960625047803298 2.5431395045707292 123 124 72 0.28629677657269204 49 1557 95 1508 35 1692 2 1380 74 1593 55 1656 83 1202 51 744
3014 -0.33513727342194727 1.530329635653189 2.6579745032602529 78 135 63 0.27385468225230325 95 1885 74 1980 34 2062 35 1812 62 1507 95 1621 54 1294 77 2149 83 1339 7 1506 100 1975 75 1240 88 838
3015 -0.51953003326499425 0.97215812337360197 2.5988147195860609 53 94 50 0.18053338429531657 16 448 95 502 35 501 63 395 62 434 54 323 55 401 98 240 8 205 31 236
3016 -1.2582461835130938 0.77094376489272898 2.5321475612596913 238 234 235 1.6763995797479798 63 1208 62 793 54 11 34 1105 35 1618 16 1673 49 1880 63 1862 95 1762 2 1563 62 1237 54 1061 74 1512 77 2339 12 1643 59 2050 37 2047 100 2107 85 1949 82 2135 55 2132 61 2343 76 2116 98 1240 8 1170 31 975 60 2087 83 1121 7 1163 80 1028 75 951 46 898 39 1095 11 729 47 699
3017 -0.8791748752128522 1.11651552888543 2.5433927087545118 136 129 77 0.16301531069901132 16 1449 49 1569 74 1601 34 1692 35 1695 77 1831 12 1227 82 1806 55 1669 43 1669
3018 -0.69948955215132225 1.2507299237897487 2.5585666709350843 220 217 131 0.41686447592061404 2 1669 62 1680 35 2031 16 1758 74 1938
3019 -0.77009197839039201 0.25565764533263313 2.7734408176251852 209 196 113 0.76614121552211178 54 1152 34 1496 35 1543 63 1764 95 1689 2 1523 74 1808 12 1440 59 1575 37 1582 98 1005 83 1120
3020 -0.97370778821638282 0.93882249668959084 2.5524022792257224 81 131 64 0.20832565870368266 2 1606 74 1888 35 1984 95 1796 34 1973 33 1488
3022 -0.24134150764968262 0.33824051452595721 2.0624082171603471 72 142 79 0.02936033929722108 34 1462 35 1500
3023 -0.67267040559054625 0.030114872214063157 2.0818795797008809 193 191 200 1.5441225862491106 35 2477 7 1929 80 1678 75 1606 46 1478 39 1445
3024 0.21969188339438941 0.12429869594279788 2.0224456516188294 254 252 255 3.8695423271081673 35 83 77 25
3026 0.058295591678396479 0.33906615772654985 1.5599149316909839 154 156 168 1.5735506579986198 49 11 77 34
3027 0.24520032910208514 0.28295935070749423 1.9527761486915856 223 223 236 2.3118184963752793 35 121 77 40
3030 -0.025221791058025123 0.22804204662902244 1.759280484230743 50 83 46 0.099338764665498416 95 105 77 62 59 57 37 63
3031 0.24774294547863432 0.39745861293237505 1.8751692517885394 148 151 161 0.046222978218315981 34 148 59 120 95 194
3032 0.11346957062950527 0.30066787442495324 1.830581165952228 142 147 109 0.25428068303526019 74 131 77 65 100 86 85 76 82 60 55 27
3033 0.040153318657263189 0.27602105398416998 1.7985409494966966 200 201 145 0.30325197301001555 16 110 77 71 83 86
3034 0.081970828483637376 0.32637520169469197 1.8495218750023457 208 200 147 0.20931161851671581 34 118 77 85
3035 0.11376957916099065 0.39060181043351777 1.9386730744345559 80 130 73 0.016253660657002886 16 173 77 115
3037 -0.28664719028048613 0.18208136605454128 1.8188042383954199 61 116 61 0.14725524927337916 74 65 77 126 76 76
3038 -0.54585690243153129 0.0036571019966456092 1.8710462398354923 127 130 88 0.14151728220731594 63 910 95 40 77 142 55 959 49 958
3039 -0.17266229557796384 0.31198239678450079 1.9292262595602916 70 134 73 0.18891461909820476 34 139 77 163 59 162 85 142 64 117
3040 0.20172211518174846 0.50755718852406451 2.1934390645493904 211 218 235 0.068184288454452194 34 230 77 171 100 225
3041 -0.30341232210069807 0.27569184708566269 1.9906663448794293 87 138 81 0.04657802460333723 34 142 77 194
3042 -0.445573497617965 0.19387387903475772 1.9715033005891243 64 125 66 0.058085533694064828 34 115 77 198
3043 -0.38278375461082159 -0.41107192344211646 3.4166220280586121 68 135 73 0.7614112836289666 74 116 77 208
3044 -0.085534965887953424 -0.22523514694144808 3.6857393156598244 72 144 82 1.6724745125364251 74 918 77 227
3045 0.1172358715412592 0.64090130186279526 2.3107565761616708 195 168 144 0.9840133539821303 49 814 95 339 77 242 61 941 8 825 60 910 65 165 41 575 19 106
3046 0.034070552318787618 0.55961551115211905 2.551998570340638 72 79 69 1.1057754107610707 95 318 77 256 12 389 61 251 65 238
3047 0.099920549488541843 0.82256544489223071 2.2432010164420428 73 120 56 0.013217546554983747 63 111 77 277
3048 -0.32694178098816912 0.38858961890822602 2.5397135227703154 171 172 187 0.6871329253623113 34 261 77 283 85 333
3050 -0.28440038374083704 0.49709198970576773 2.7865485238200765 201 192 111 0.25116286007126176 35 344 77 336 55 245 95 309 83 285 32 345 23 211 28 207 87 164 68 183
3052 -0.87022597696820869 0.28649674778425582 2.1557096550432107 78 130 66 0.19256927626073797 16 122 77 340 82 354
3053 0.064591590179451736 0.9935817508722824 2.2186039801541293 79 142 71 0.27595668279523511 54 1022 77 343 85 343 8 130
3055 -0.75272751855619546 0.1749887982800713 2.8695222480416938 2 1 0 0.45553799193680999 34 237 77 354
3057 -0.78185045561355204 0.37453786997489485 2.7245464696248169 79 116 52 0.24898429586542317 2 126 77 376 55 503
3058 -0.93489012922834591 0.45190445133438267 2.14321720842069 224 223 154 0.22440057491026694 95 239 77 379 8 439 63 545
3059 -0.10103569986230246 0.60651658284528287 4.0926985841011128 77 115 66 2.0863402686544754 49 398 77 404
3060 -0.282145796017086 0.87104238481422436 2.6856563377077345 77 115 66 0.14063805550272393 2 448 77 405 8 244
3061 -0.46037110892912225 0.80252463396958207 2.6427646330649539 72 106 55 0.13553582897674671 62 370 77 420 8 296 50 203 49 365 36 155
3062 -0.56704352279368597 0.78468396055671119 2.6203551393465303 171 155 96 0.192633178705437 63 392 77 433 50 207 30 191 36 164
3063 -0.62483147786726911 0.74325462801662689 2.6208524891663627 67 115 54 0.18361354617414569 74 379 77 435 55 431 49 451 43 445 31 305 83 253 12 264 44 240 78 175 36 194 70 154
3065 -0.62172609577961591 0.77397846531922831 2.6148654521415398 171 155 92 0.24515723587609647 35 409 62 886 63 419 77 442 54 781 31 739 50 578
3068 -1.0640674227762668 0.599026843727407 2.1312984355605229 248 223 179 0.43864324609036842 35 282 49 1215 77 460 55 653
3069 -0.46025609762537778 0.93484028411043518 2.6178259478981802 67 106 56 0.092107829575675523 63 364 77 463 61 455
3070 -0.78950350596511598 0.71752787966897713 2.6091242854683414 186 169 99 0.17909738223707949 95 390 77 470 55 547 78 127 51 128
3071 -0.39622744995155745 1.0437491040313494 2.6252442967902772 62 106 54 0.052917998350563926 95 550 77 480 82 474
3072 -0.58562686824744048 0.91399609770212431 2.5924233926681737 64 106 56 0.46717503831089402 95 477 77 481 82 495 98 213 8 224
3073 -0.34993281860099945 1.1082299375909883 2.6317712454828603 219 204 126 0.076227087749227054 35 590 77 500 8 131 31 231
3075 -0.26843793004648614 1.2464601357760066 2.6563420454424902 251 240 144 0.31808843442178758 35 1317 77 520 37 1196 100 547 85 492
3076 -0.62417089210346244 1.0023824817481035 2.5751672817682918 69 108 57 0.16421498253244637 2 456 77 521 31 183
3077 -0.67791407847036445 0.9757891923028511 2.5690062181385147 67 110 58 0.070522756491931141 74 503 77 530 31 179
3078 -0.4302884700318152 1.1652242025848139 2.6051335412426786 88 125 70 0.091293498861666419 16 563 95 632 77 534 12 498 39 303 30 82
3079 -0.67957665789049659 0.9965924198637186 2.5662482998132066 65 105 55 0.11714872693922464 54 249 62 410 77 539 55 492 43 493 98 187
3080 -0.72065235438283171 0.99691447623952467 2.5592671758567218 62 103 54 0.065125218705254354 63 504 77 562 70 79
3082 -0.7872002961719079 0.98835104474968205 2.5576469518779592 62 107 55 0.14453749331682569 35 502 74 499 77 574 43 555
3083 -0.38693626815227244 1.3214379482646244 2.6162758193486302 71 114 60 0.094411569295991066 74 681 77 584
3084 -0.77539375900306262 1.0440964752814241 2.5497878334239736 65 111 59 0.013033389888356313 34 537 77 588
3086 -0.18557862064546179 1.4935664983741557 2.7052446288556222 168 200 112 0.64123940899295784 63 304 77 604 30 51
3087 -0.39158897212353461 1.3948072148834267 2.6161548752991552 67 112 58 0.12096344512573351 34 702 77 617
3088 -0.63718731288279429 1.247671204858777 2.5644195088602162 72 117 62 0.1304532899656769 95 653 77 625 82 609 55 494
3089 -0.63721104254449856 1.2478426319095595 2.5654617294395212 72 117 62 0.15526455165862924 34 641 77 626 55 495 43 499 76 488 52 341 78 123 31 85
3090 -0.56530780420057136 1.3112639359714342 2.5792776462647615 71 115 61 0.13284982439315396 74 667 77 632 12 504 82 603
3091 -0.40603911734875275 1.4391623875696715 2.6225242570481089 69 118 58 0.19411031221488242 35 749 77 640 100 622
3092 -1.03857002946917 1.0264924310532766 2.5470753633886476 227 210 127 0.018408616898575765 49 640 77 665
3093 -0.50423527111301381 1.4360338408393178 2.6014196117783555 67 114 57 0.1211851869764831 74 714 77 673 85 590
3094 -0.97167310146671426 1.1628009371794195 2.550307241368075 79 127 65 0.11755877069469042 95 1168 77 695
3095 -0.7859407956724408 1.3234418496047538 2.5603253840444604 206 206 132 0.0078094088556394286 35 683 77 702
3096 -0.66619331101359902 0.90542836152343109 7.2536746262570775 206 206 132 3.2174685739282056 95 545 77 703
3097 -0.83824920930580593 1.3037987998239231 2.5542365654677153 71 121 61 0.17786877414451202 34 676 77 716 85 608 60 532
3098 -0.4776955001101299 1.4511059951712997 3.8380132231552007 80 144 65 2.103945215154158 49 514 77 718
3099 -0.64475339982874369 1.4751011684153392 2.600221704474114 80 141 66 0.21134698777824901 74 723 77 732 12 558 85 644 64 569 7 499
3100 -1.0829447123378555 1.2071454676423619 2.5575894231540417 113 173 83 0.13075766068179154 35 624 77 745 64 475
3101 -1.3209154155484815 0.4142499047425241 9.8700640563590287 249 228 144 2.142021973745166 2 312 77 751
3102 -0.60260271122593267 1.5659619484109149 2.6388574117666082 87 150 70 0.20126946895128314 74 756 77 755 100 709
3103 -0.57224335297552342 1.6003172904938654 2.6490368339031027 85 138 68 0.5525865684814274 74 767 77 759 82 721 35 1393
3104 -0.62339415761700456 1.568004873674969 2.6427334484872826 95 151 73 0.095920693290176356 35 789 77 761 37 712 85 679 83 549
3105 -1.0679368127691085 1.2773387237791813 2.569242330175777 94 167 79 0.2298379810627198 34 672 77 776 37 661 59 703 61 1383 65 535 79 573
3106 -0.086090739992357168 0.084884984647237344 1.556172678459887 99 69 42 0.53871464303155581 74 1340 77 827 37 0
3108 0.05602356484641114 0.32023688972822806 1.8516509022848424 68 112 55 0.020570729252877396 74 874 77 897
3110 0.17450139468063025 0.45168637665616518 2.0723333612064283 149 150 162 1.1220415380136999 62 347 77 924 54 610 82 129 98 526
3111 -0.5431376087981048 0.016372585205259069 1.883325051586892 54 112 59 0.31433107814386979 63 911 77 931 82 1509 55 1457 61 1520 76 1398 76 1758 60 1359 79 1333 53 1200 93 1214 18 1164 52 1409 41 1213 33 1439 19 1267 96 1052 71 1051 22 1018 13 1076
3113 -0.13666032626484087 0.39564761309295277 2.0781267526220084 75 147 82 0.050990348397675876 34 922 77 967 59 935 55 862
3115 -0.038835599561071237 0.51507969249530716 2.3181872223324249 137 162 110 0.18424317554338859 34 977 77 992 82 1550 61 1544
3116 -0.29971108567947641 0.38133558669030065 2.5706158609518539 73 124 78 0.52455373794894466 74 957 77 1028
3118 -0.3017835437988069 0.45811895900073502 2.6530055839152977 62 51 31 0.48405221608870103 35 314 77 1041 59 1035 37 334 100 1034
3119 -0.094791043910292958 0.6340633368206896 2.8057944382193534 92 132 67 0.38875260426846603 95 1010 77 1068 98 854 8 859
3120 -0.68408849317493337 0.26140787648701236 2.6550368269918589 0 1 0 0.062374877399943435 34 954 77 1075
3121 -0.73014197517319701 0.26077936517076583 2.7794778951019898 60 93 42 0.22677014856859323 35 275 77 1096 82 1141
3122 -0.94938390529028671 0.34204938763088949 2.1365862722111921 82 131 59 0.7652362583069765 54 36 77 1105 8 1261
3123 -0.43828780627565578 0.73479781838777647 2.6594757182069495 66 107 55 0.13481591258345776 16 934 77 1139
3124 -0.9965095513784864 0.51402554922611576 2.1367376320083658 167 173 106 0.30565848101600412 34 989 77 1156 12 693
3125 -0.64680640893436481 0.68395443890195284 2.6285346742439684 66 122 55 0.09291812240968661 16 1358 77 1171
3126 -0.72512683614327422 0.65307080432738873 2.6342338652894428 65 114 52 0.16406998465277781 62 830 63 1065 77 1180 8 840 31 754
3127 -1.0879499351439368 0.53098336782234634 2.1428981201104982 255 255 216 0.14652077133294325 63 1168 77 1186 82 477
3128 -0.60672773524936274 0.80816695983448283 2.609092247836498 50 104 47 0.10049344552761737 34 1103 49 1489 77 1202 12 853
3129 -0.60723800024879004 0.80802526074238135 2.6082649105756173 50 104 47 0.27822362678769325 34 1102 77 1203 12 852 82 1196 8 1151 62 1341 31 1063 50 811 44 890
3130 -0.12275112554956299 1.1581036432443197 2.7057036348370689 155 150 101 0.24830752966105665 62 1471 77 1205 61 412
3131 -0.11917758884264337 1.1865461474917873 2.719324293129965 44 78 35 0.6346838792297862 54 975 62 1081 77 1216 31 1060
3132 -0.76272257849034619 0.7344846951604137 2.6086735229493212 70 113 53 0.34789954939273765 16 929 35 392 77 1218 59 448 82 506 43 1173 76 477
3133 -0.65094154293127859 0.89371787138409498 2.5842386956425174 65 111 56 0.24094987785890795 49 1080 62 917 77 1231 59 475 85 454 55 1111 31 710
3134 -0.090876482533629996 1.0077771804603923 3.9356068955095376 198 185 106 0.036562896653486429 49 1015 77 1233
3135 -0.099023597163358151 1.3915793748703214 2.6597219319308096 251 247 228 0.29037647206788147 63 251 77 1250 55 238
3136 -0.60799368554361233 1.0276797430869746 2.5752523738564737 64 108 58 0.1979614708028124 49 1061 74 1153 77 1251 98 695 31 682 30 454 78 520
3137 -0.36165978347876859 1.2224364946178821 2.6226195813547313 68 118 62 0.035141843989434061 34 1240 77 1254 37 1195
3138 -1.1662229684681313 0.69907457321609623 2.4574902638197296 249 240 243 0.51932218209188041 16 900 77 1270 85 1088 26 995 37 453 20 1408 79 1060 27 314 18 899 93 391
3139 -0.78623459067849999 1.1535084617908227 1.7593635699642427 66 112 56 1.8252770261027074 49 1038 77 1279
3140 -0.62837458592570561 1.1353445490912817 2.5653978678932456 63 103 57 0.0059923902718479836 74 1196 77 1281
3141 -0.8880212868032149 0.9512826865192251 2.5495764947754309 240 221 132 0.086003406723572401 95 1101 77 1283
3142 -0.16961712819000382 1.5000769945029933 2.7372798096752384 93 124 55 0.4858324640458121 63 960 77 1299 85 1677 82 1251 55 991 49 910 43 348 61 1156 76 383 31 990 60 1084 33 121 44 445 50 416
3143 -0.8121985877590584 1.0869901615174649 2.5450009809406207 252 232 143 0.0054306792424004789 34 1204 77 1319
3144 -0.65353800095127013 1.2500564093541671 2.5657415835024029 254 244 156 0.094846952915941501 49 1078 77 1325
3145 -1.2530739359586283 0.81759847539432418 2.5551452694159855 71 66 41 0.80536349572453536 35 1152 74 368 77 1326 12 145 59 1180 83 151
3146 -0.31375431981020563 1.511424303749527 2.6606247215022365 97 139 71 0.0142354951046832 16 1177 77 1330
3147 -0.40954502410203808 1.4499833997925609 2.6228352012770939 66 111 56 0.015199231191519554 35 1362 77 1332
3149 -0.49821983481112431 1.4076288744823366 2.5959049267565981 245 229 150 0.14910933398572854 63 446 77 1335
3150 -0.80779496506226756 1.1974725935626338 2.5516386389822605 65 111 59 0.20571986469360956 34 627 77 1340
3151 -0.561019413726213 1.37763148510056 2.5849678158474276 68 112 58 0.0077240041442154976 63 1086 77 1341
3152 -0.99718653922156442 1.0818973796594702 2.5444788766285433 64 111 58 0.16621390665282693 49 1211 77 1349
3153 -0.99718653922156442 1.0818973796594702 2.5444788766285433 64 111 58 0.16621390665282693 49 1212 77 1350
3154 -0.88314889606988023 1.2716886766706585 2.5512962588712251 73 122 63 0.13729095357607318 95 1194 77 1378
3155 -0.88335636800753858 1.2713080130842078 2.5519260356055788 73 122 63 0.19284693292622632 35 1313 95 1193 77 1379 37 1268 62 1017 82 1338
3157 -0.71220186069028646 1.542479141767533 2.6308647366831606 98 157 77 0.23913447747938429 34 1345 77 1414 100 1723 82 1842 61 1811 64 1109
3158 -1.3590099883170297 1.0860131318004513 2.5927623824957133 87 155 70 0.27262519995652873 34 595 77 1419 59 657 37 1274 100 1201 64 462
3161 0.07946768127228479 0.25269567961100958 1.7791548229389726 71 78 52 0.9853669231646679 74 856 77 1462 59 1895 37 1884 100 2036 85 2256 82 2201 43 1783 61 2392 64 1784 60 2159 7 1345 80 1181 75 1101
3162 0.044786973973430198 0.24885628716515118 1.7723206741880624 154 158 119 0.27679883014202661 74 1382 77 1464 59 1421 37 1413 100 1784 85 1371 82 1445 82 1929 43 1784 61 1911 76 1727 64 1201 60 1310
3163 -0.40423596179904758 0.0095765579522878175 1.7059209655615746 198 198 209 1.6073385362267867 34 1380 59 1403 82 1467 43 862 76 813 49 181 60 1315 79 1293 26 1298 20 1236 53 706 55 163 93 1189 18 1127 63 173
3164 -0.14132379406296741 0.19973583982622906 1.765358078897137 73 124 68 0.34704694460205787 16 1217 77 1474
3165 -0.44608291610061745 0.014915240692357987 1.7920932208820866 48 98 53 0.12638399290346677 34 802 77 1482 59 861 82 1492 61 1503 76 834 60 836 52 662 19 607 43 1413
3166 -0.40773642271048938 0.1068246144788961 1.8278012229104206 65 120 60 0.22767125687673861 49 1379 77 1498 82 1499 55 1411
3167 -0.092994515215115314 -0.30519818415687 3.549422924235563 70 140 77 0.043367649617340825 74 1409 77 1528
3169 0.027282626437442246 0.54495015727556173 2.5629519172519957 119 164 110 1.3609203960985565 16 280 77 1562 12 378 74 328 65 242
3171 0.099984664918568833 0.90847425011557315 2.2335357471794497 81 139 74 0.23733404956146104 63 1278 77 1589 44 780 50 723
3172 -0.14683425077160669 0.69158604386807077 2.7720180318675021 58 120 61 0.35208298242979813 95 1752 77 1624 55 1435 98 1392 31 1367
3173 -0.051937704495146828 0.96450624001338392 2.7612321141805221 67 127 64 0.397603332921797 63 870 77 1668 83 1300 39 976 88 983 5 696 15 503 5 595 32 604 45 655 42 258 48 241 24 219
3174 -1.0029169856180804 0.48238758470577919 2.1295094014118323 68 128 65 0.24782069613406521 49 1590 77 1679 82 1676
3175 -0.43708337252255691 0.75227753925294183 2.6577008203863843 57 104 52 0.36421348838996392 34 1584 77 1680 55 1509
3176 -0.20424574042295102 0.94346546518799512 2.7010609070070726 108 133 78 0.30561950603757965 34 1966 77 1684 59 1643 37 1642 82 1661 32 579 5 682
3177 -0.33048298283389521 0.85730317034929615 2.6771988573774594 142 136 87 0.22387830082623736 62 1653 77 1685 59 1631 37 1629
3179 -0.98139699614221898 0.59241637031988081 2.628003785418501 68 119 54 0.10684690994444314 2 1226 77 1722 12 1134
3180 -0.72562854843116131 0.81399471198878959 2.5931753618524711 186 169 102 0.013447326331527138 49 1526 77 1733
3183 -0.73973270235576838 0.97308822657536953 2.5623720520972424 69 107 55 0.16577930977401267 34 1655 49 1528 63 1523 77 1765 33 1214 50 767
3184 -0.84581138463292416 0.92897470631437917 2.5610971932894024 71 111 57 0.016046153524859257 74 1560 77 1774
3185 -0.6134799416729495 1.1126280517816669 2.5683592155005801 58 102 56 0.058808574950345076 62 1422 77 1780 55 1583 83 1239
3186 -1.0799141886339994 0.78888297505050931 2.5857893363004858 209 201 117 0.17922484487798923 63 1576 77 1784 55 1702 49 1626 43 1700
3187 -0.26092719844306683 1.1764583356798233 3.8835611118381355 68 113 60 1.0259528864729464 49 1486 77 1785
3188 -0.78809529684944479 1.0827629831356693 2.5478766100646175 61 108 56 0.065212716121133163 34 1679 77 1803
3189 -0.85261799379654601 1.0760572486293039 2.5479534571110594 223 215 131 0.03816628341407844 49 1562 77 1817 82 1789
3191 -0.594359430272557 1.0115003133672631 4.5234634759770804 229 215 136 2.0752924460209128 74 1666 77 1826
3192 -0.30767706401192846 1.4033617717175157 3.8345128517813034 68 118 56 1.7247141693949182 49 1496 77 1837
3193 -0.42685457235482732 1.470428767090284 2.6222519867844944 68 118 56 0.0079542903543218368 35 1797 77 1838
3195 -0.33097536177243314 1.6198449590548027 2.685304170811452 96 142 65 0.18870740665922225 95 1260 77 1856 82 1788
3196 -0.64228008972194961 1.4189076717035276 2.5870735030422458 69 124 59 0.21222141218338844 34 1766 77 1859 59 1786 100 1679 85 1707 7 940
3197 -1.0379205526592068 1.1588672160888218 2.5504882277867913 75 128 64 0.23841526578922817 35 1708 77 1867 100 1627 64 1398
3198 -0.68024974573236952 1.201667072088604 4.5669134609045523 134 163 91 3.3142493442653 74 1265 77 1870
3199 -0.63669322758201286 1.4650170222618406 2.5975053319411967 240 235 155 0.26417298031957787 74 1695 77 1871 59 1803 100 1699 64 1459
3200 -0.86694814895100492 1.2997295755670786 2.5531817275840947 176 189 111 0.17281409392852784 34 1743 77 1872
3202 -1.2354169109054323 1.0725113571833578 2.5635551871131681 220 209 125 0.15602085697815654 34 1688 77 1887 59 1741 37 1741 82 2162 55 1738 43 2028 33 1333 52 1333 41 1100 49 1647
3203 -0.78252471016432024 1.5094976579098467 2.6120259118518359 198 204 133 0.47644818945885614 34 1790 77 1908 100 1717 82 1849 37 1825 64 1476 60 1172 7 1268 75 1027
3204 -0.87421624415609023 1.4639315437433607 2.5976133341718959 95 167 81 0.17715473685539163 35 1788 77 1910
3205 -0.95651866733336288 1.4066308975310116 2.5740230183750263 236 228 146 0.078633801056661207 95 1588 77 1912
3207 -0.80687085374051815 1.5252086436002079 2.6218852590873687 235 222 136 0.32743855785240761 35 1807 77 1917 61 1826 43 1682 76 1206
3208 -1.6342289266981158 1.1448890681392119 3.3460954061711674 203 185 162 0.64734383834761988 77 1928 59 1850 37 1381
3209 0.029011498682001667 0.19478470880122084 1.6223207516481084 107 93 52 0.84799067439458276 34 1817 77 1931 59 1883 82 1431 43 799 33 1051
3210 0.12505047565868121 0.30111912742500585 1.8224332211239316 60 80 52 0.56681595587549061 34 1842 77 1940 37 1889 100 2039 82 1930
3211 -0.30704258336210788 0.049481015796666833 1.7331172593904935 50 95 52 0.88461405243578883 34 2085 77 1943 43 1396 49 848 52 64 19 51 96 20 22 16
3212 -0.037057233738403569 0.25449360621367678 1.7912100710168779 71 125 63 0.16949120198891671 34 1833 77 1947
3213 0.10333162251287822 0.43636090935993127 2.0287253891134753 89 171 95 0.46218141755857078 63 1241 77 1975 82 1495 61 888
3214 -0.75691740335713709 0.11046015825507027 2.1766289054731698 108 74 47 0.82952995638386895 63 1955 77 2004 82 2007
3215 0.14156009132450922 0.84551002559447541 2.2469122744827228 190 233 137 1.4623832527320095 63 1647 77 2010 37 1970 55 1774 49 796 31 1570 44 1034 30 1074 70 807
3216 -0.25817947973031591 0.51655490506485202 2.7846257108103298 64 113 58 0.32060274448032616 35 1938 77 2030 59 1991 82 2031 83 1471
3217 0.030981013076855017 1.0356029481636124 2.2323302600827741 174 186 115 0.72644217813238199 16 1731 77 2040 12 1585 98 1408 31 1319 30 467 51 261
3218 -0.70450575630594792 0.47688313601951554 2.6901348345570426 69 127 55 0.097056971470926762 74 1830 77 2054 12 1472 83 1441
3219 -0.019758210211385168 1.0110714347573941 2.7596133673568239 90 112 53 0.32158402937689134 63 1685 77 2059 55 1814 43 1480 82 1648 61 1066 76 1002 33 1091 44 1048
3220 -0.018494708404168357 1.0097586233323368 2.7626922051210343 90 112 53 0.48839501945760311 63 1686 77 2060 55 1813 49 1372 43 1479 33 1090 41 614 44 1049 9 776 94 453
3221 -0.22417642127868356 1.1539004754789877 2.6715364361539558 185 174 99 0.44048285389886549 35 2019 77 2091 64 1403
3222 -0.52598968723280393 1.0072783550955595 2.5929693585635838 186 180 111 0.55198317287109044 35 1997 77 2098 12 1541 2 1637 37 1665 82 2079 55 1875 78 990 51 1107 74 2096 36 877
3227 -0.64704913542197162 1.1575985048446926 2.5578195610425869 60 105 57 0.053572833770611589 74 1922 77 2128
3228 -0.51897799698124003 1.2950484428880735 2.5888193674093958 65 112 58 0.21364048665341043 35 2039 77 2134 37 2083 100 1942 44 774
3229 -0.97610158956925763 1.0579320019053848 2.545256449682253 69 111 58 0.157820439309273 49 1843 77 2147 55 1940 43 1996 33 1263
3230 -0.83394145381193829 1.1832260639123873 2.5440308019061009 204 201 122 0.10729703408603557 63 1826 77 2151
3231 -1.1103713056667914 1.125199836382194 2.549544824293756 118 150 82 0.15588689466129033 95 1820 77 2167 76 1936
3232 -0.46338466837510156 1.6040759265523294 2.6702228885591253 185 186 104 0.53903299880197619 34 2071 77 2171 37 2132 59 1835 100 2166 61 1771
3233 -1.270003622442841 1.1911251642657601 2.5889494664082764 193 200 109 0.8298446534941798 35 2020 77 2187 59 2290 37 2298 100 2131 85 2215 82 2355 43 2197 61 2374 76 2247 64 1876 60 2133 79 1868 53 1823 93 1908 18 1753 52 1701 19 1400
3234 -1.2922313373666476 1.2026862512172409 2.5966088757949519 99 145 88 1.261837858237185 49 1657 77 2191 43 2306
3235 -0.76090839885997241 1.5893334040082412 2.6303609923872977 132 167 133 2.0273104369166473 34 1804 77 2192 83 1308
3236 -1.2648714494618927 1.3143083819608867 2.8414109796065148 0 0 0 0.46701778385882886 34 2048 77 2195
3237 -1.0547251700468194 1.4889847320392287 2.7974254449884772 132 98 59 0.20979863242778174 34 1338 77 2197
3239 -0.36289565159764098 0.033539098564250434 1.6378643983675623 197 197 206 1.4218881086933828 34 2081 77 2210 12 1626 82 2205 61 2196
3240 -0.39432227688270272 0.031037711520369091 1.6477704248923979 195 195 205 1.6183509770568376 74 1992 77 2211 82 2208 61 2199
3241 -0.17449514434663996 1.0338761355026576 2.6928082006877769 145 148 93 0.46381766074092723 34 2182 49 1723 74 2213 77 2284 43 1870 31 1465
3244 -0.22173749748434599 1.4200807109254288 2.7047288283805546 179 181 122 0.64940358658635366 2 1858 77 2325 59 2284 100 2142 43 1536 98 1532 64 1893 83 1683 7 1677 80 1444 75 1374 46 1315 39 1322 78 1226 88 1156 69 943 11 1066 47 981
3245 -0.18429038169379797 1.4831353247668069 2.7431326382800094 130 193 102 0.39987767169251698 63 1720 77 2328 55 1837
3246 -0.33787417381157009 1.3910611317913575 2.6379760337616638 234 227 148 0.20333721056144199 63 1950 77 2331 59 2280 37 2286 55 2050 49 1940 43 1899 33 1418
3247 -0.66982846312336486 1.1800615802114245 2.5709421517160895 223 211 134 0.25023160489350538 74 2114 77 2334
3248 -0.91424281420338749 1.0128952492546717 2.5521624591424565 205 198 118 0.17017048877333762 16 1716 49 2009 95 1804 77 2337 43 2158
3249 -0.7950688045273262 1.1118820368289837 2.5560334350017673 231 215 133 0.30761248893412779 63 1812 77 2340
3251 -1.2045186445563427 0.89326269524379531 2.5797566242140517 226 211 119 0.1852577759313068 63 2024 77 2348 82 2327 55 2129
3252 -0.55120546304646889 1.4769356121419261 2.6138358306851304 75 136 62 0.15370847617615338 74 2151 77 2356 82 2314
3253 -0.76331875756516665 1.373137366136062 2.5701069887135275 68 124 60 0.11212595429930274 35 2212 77 2357
3254 -0.92809654357431182 1.293638733247003 2.5566180229869295 202 206 125 0.31148113079636969 34 2213 77 2362 61 2340
3256 -0.8768939206001356 1.4860434711577493 2.6079423945045326 85 160 77 0.62079602456056571 35 2055 77 2383 59 2138 37 2318 100 2161 85 2228 82 2344 61 2347 76 2104 43 2172 64 1901 60 2126 83 1273 74 1964 7 1485 79 1846 26 2020 20 1786 65 1668 53 1406 93 1389 18 1564 80 1297 75 1214
3257 -1.6230439499586029 1.1807289495895916 3.3527872759857194 210 206 212 0.88033564022135313 35 2042 77 2390 37 1858 85 1803 55 1756
3261 -0.39263602291458649 1.4656653004209488 2.6347607022972723 239 228 148 0.0078557286972546075 35 2373 77 2460
3263 -0.94618283387780733 1.1165302437183688 2.5423656132415586 65 111 58 0.23057604225033002 49 2129 77 2465 55 2225 43 2288 33 1738 9 1170
3264 -1.0651701001357872 1.1860037012438001 2.5568140582537997 217 213 127 0.1290775986866414 49 2139 77 2474
3265 -0.74768706892466774 1.4423261780290344 2.5892082316586396 241 231 147 0.61149901342175572 35 2314 77 2476 61 2468 64 2021
3267 -0.40909464354009961 0.40931363045149471 2.7600763640261294 146 161 83 1.0085648579584643 34 2345 77 2514 55 2261 49 2104
3268 -0.64242549082882205 1.077204233079216 2.572081875177207 216 207 131 1.1100582443627318 62 1962 63 2167 77 2539 59 2429 37 2433 85 2300 43 2343
3269 -0.73296278967715656 1.0382274971422332 2.5631516372408707 168 169 98 0.15129830576818687 49 2188 77 2541
3270 -0.42293712133422051 1.3687476899761284 2.6146220356558434 132 150 87 1.04200798087476 35 2370 77 2544 7 1846 31 1528
3272 -0.36982574399011464 1.5389232481637272 2.6528985823325479 81 140 64 0.34236044045346159 34 2379 77 2549 59 2442 37 2445 100 2366 82 2500 85 2389
3273 -1.233279950707308 0.91867981796723541 2.5785415767993163 239 220 124 0.92160259119583332 49 2203 77 2550 82 2513 43 2357 63 2118 61 2581 76 2371 33 1823
3274 -0.66626425319682281 1.5275916631560331 2.6150238577393852 234 234 153 0.33655427289122891 35 2375 77 2554 37 2448 100 2309
3275 -0.3724649170550805 0.19630582784488274 1.9124753234151393 61 124 65 1.2041672830593548 77 2569 82 2525 43 2375 49 2223 61 2552 76 2327 52 1822 19 1597 96 1200 71 1215 22 1017 13 1233 34 2388
3276 -1.2000377487903793 -6.9739550109040871e-05 3.770535770407685 0 0 0 0.035919436388751495 62 1936 77 2585
3277 -0.85118259681869324 0.88465714703227016 2.5705701946392581 199 191 113 0.013693220789900058 62 1995 77 2589
3278 -0.68202543998742171 1.6741556428375517 2.900377716042053 0 0 0 0.25401819332873282 34 2419 77 2600 83 1861
3279 0.059928975780504344 0.43855213018676992 2.0886094343906914 130 176 114 0.93975348405129755 35 2488 77 2606 59 2492 37 2500 85 2451 60 2329 79 2184 26 2281 20 2133 27 2021 64 2219
3281 -0.042797008675118452 0.3080063492225546 1.856147148953174 69 132 70 0.68645071331224961 35 2482 77 2649 59 2545 37 2551 100 2428 85 2484 82 2620 64 2207 60 2425
3282 -0.78311861459179799 0.47280649152406223 2.6768175906517162 140 147 79 0.89257795361893377 63 2299 77 2676 8 1813 62 2041
3283 -1.1397936768689036 0.85499617208759349 2.5797632660119296 83 151 65 0.72281543782047475 63 2328 77 2708 82 2681 49 2356 55 2457 43 2535 61 2718 76 2476 33 1944 41 1705 52 2015 19 1834
3284 -1.123371147956753 1.1583073549086418 2.5633312362804661 174 187 110 1.4116020923938684 34 2516 49 2354 77 2730 59 2598 37 2608 85 2550 82 2694 55 2458 43 2536 61 2727 76 2484 33 1939 52 1986 41 1702
3285 -1.211970032897381 1.1084831890984825 2.5708695566456163 122 168 86 1.0502436120763268 49 2358 77 2731 59 2596 34 2452 37 2607 55 2462 33 1941 41 1738
3286 -0.36877201032058221 0.072909377174244519 1.7785894152088699 122 135 87 0.22817430180064177 49 855 63 840 77 103 16 42 95 55 74 31 34 50 35 37 82 120 55 883 43 863 61 101 60 77 33 715 52 85 41 89 19 66
3287 -0.15646426441906916 0.16823296791094983 1.7393708157162162 57 110 61 0.22926706676265712 49 94 63 92 2 751 16 742 62 740 54 419 34 61 77 889 95 84 74 53 35 54 59 44 43 69 61 62 76 48 98 298
3288 -0.50107986163689877 0.94490356086566107 2.6047052460535833 183 168 107 0.21713549385998582 34 1158 35 1220 77 1220 63 1013 62 981 54 825 59 1158 100 1119 55 1065 31 728 8 752 30 490 50 512
3289 -1.342562239491909 0.85675083165548638 2.6378423706653411 61 107 46 0.34568087295139127 2 860 62 799 77 1357 16 368 74 404 12 750 59 557 35 1186
3290 -0.29767950093419254 0.97633335014305855 2.6610958700583618 45 83 41 0.27949377288748617 95 1803 2 1647 74 1910 34 1974 35 1994 77 1701 49 1422 63 1389 95 1482 2 1399 62 1426 54 1292 12 1304 82 1677 55 1483 43 1023 98 1131 8 1088 31 1077 31 1312 19 216 44 826 30 892 78 858 51 1009 50 766 36 707 9 509
3291 -0.4774423944408871 -0.0052397410812197315 1.7916458475172539 81 119 73 1.2614712419576171 74 1343 34 1386 77 1481 49 1395 63 1334 95 27 82 1494
3292 -0.20433210026385856 0.10432462098963133 1.7128037559909666 50 99 54 0.25830785556261293 49 824 63 802 2 719 77 870 95 56 34 42 35 32 12 49 59 29 82 75 85 35 55 829 43 74 61 54 76 45
3294 -0.58834636399695661 1.0353106644394532 2.5764359780760624 58 96 53 0.13925269878280994 16 1025 54 797 77 1247 49 1054 95 1123 2 987 62 993 8 727 31 684 51 526 50 490
3295 -0.33827731314634424 0.16126951350605964 1.8424541194465207 70 135 70 1.2778985918092174 74 2383 34 2463 35 2474 77 2651 16 2133 49 2314 63 2270 95 2271 2 2044 59 2542 37 2548 100 2426 85 2486 55 2403 76 2444 33 1884 65 2208
3296 -0.27542990374745635 0.11460560778288863 1.7505322891629749 150 153 106 0.20693816416307825 49 1696 63 1661 77 1948 16 1201 2 1144 74 1357 34 1397 35 1428 12 1082 59 1415 37 1410 100 1364 85 1373 82 1937 55 1789 43 1803 61 1488 76 1357 60 1322 52 1092 19 1007
3297 -0.20263566589187301 0.91676877310347538 2.7063986760830065 59 108 56 0.47468474319383752 16 1894 95 1996 2 1820 49 1729 62 1845 74 2092 34 2174 35 2174 77 2064 63 1700 54 1550 12 1727 59 2032 37 2027 82 2049 55 1829 43 1872 61 1649 76 1034 98 1534 8 1526 31 1478 30 905 44 1058 78 1176 51 1157
3298 -0.20037480906175786 0.14870448982924622 1.7427324016917523 66 125 66 0.53264578127554962 16 1577 95 1904 74 1999 34 2092 35 2090 77 2213 49 1904 63 1887 12 1422 54 1517 59 2169 37 2170 100 1779 82 2207 55 1989 43 2057 61 2197 98 1341 8 1478 31 1386 60 1760 26 1680 20 1238
3299 -0.16107053141766611 1.3748611501136561 2.6584859688260152 84 74 40 1.1770748026139879 49 2167 63 2144 77 2535 16 2020 2 1933 62 1933 54 1772 34 2372 12 1823 59 2436 37 2440 100 2247 85 2380 82 2548 55 2258 43 2333 61 2563 76 2286 98 1607 8 1602 31 1442 83 1765 33 1579 79 2265 65 1952 53 1987 93 1874 93 1955 18 1818 52 1742 41 1391 19 1625 44 1155 50 1035
3300 -0.27844110185706511 0.92904523652967341 2.6790325068588494 48 96 49 0.47200826683508623 63 1711 95 1795 2 1639 62 1666 54 1539 77 2071 74 2091 34 2177 35 2175 12 1551 55 1835 43 1529 8 1388 31 1322 83 1650 33 1125 41 641 44 1057 9 794 94 477 30 900 78 1037 51 1017 50 950
3301 -0.44498172636391931 0.01308653190984109 1.7870495540857481 50 98 53 0.90535452827269525 49 1384 63 1324 2 700 16 703 62 681 54 769 77 1955 74 1754 34 2086 55 1414 98 162 41 591 33 1107
3302 -0.1815441932196723 -0.062180774812774883 2.9350996894164569 68 138 76 0.35997874110000222 49 954 77 970
3303 -0.31992037774422755 0.034580925665679517 1.6489419584946026 148 122 100 0.19313025523631391 2 13 74 17 12 9
3304 -0.91331509080925777 0.29459765555869522 2.1476680390380021 99 144 68 0.34216271334675019 34 192 12 29 59 284
3305 -0.980635666112183 0.52369897161583456 2.1502698037003398 254 246 236 0.11529029483782133 35 255 12 84 59 338 37 339
3306 -0.20285366147046521 0.20887063939541162 1.7976526281466592 70 151 81 0.089303327376315536 74 850 12 97
3308 -1.2201076249974008 0.7308377292924797 2.4862976656532108 118 93 69 0.37697922648468968 35 1132 12 124 98 19 31 120 83 716 39 566 46 563 88 53
3309 -1.1027644312398199 0.65269403869117371 2.6063893033929184 170 150 84 0.029912631277863796 74 332 12 134
3310 -0.96563782661753017 0.52343633258735311 2.6537501759828843 74 124 56 0.12185013416654132 62 140 12 136
3311 -0.70338322288389554 0.33299694943057156 2.7477815160518335 55 89 39 0.52140865116845059 2 119 34 281 12 149 94 257 86 199
3312 -0.81473748707035243 0.50255347626512503 2.6692393161312391 166 150 84 0.10187468561667934 62 169 12 158 54 155
3313 0.088698214722911811 0.31405605074982856 1.8453707182295329 182 181 126 0.41201410252779347 74 139 12 186
3314 -0.907240478922691 0.83026995694354466 2.572166962349101 108 146 74 0.012292323270320997 16 371 12 207
3315 -0.97415782790150696 0.9228020490498704 2.5599228391781912 86 140 67 0.18068431952135888 54 84 12 222
3316 -1.0341623121343233 1.1235256318096536 2.5462619907678801 123 187 92 0.24954072102890099 77 696 12 268 43 681 35 574
3317 -1.0341623121343233 1.1235256318096536 2.5462619907678801 123 187 92 0.24954072102890099 35 573 12 269 43 682 77 697
3318 -0.95101992923913603 1.0839476382793778 2.548627360794169 240 220 132 0.027890057237887483 35 547 12 282
3319 -0.66021112969286055 0.84730009365322556 2.5891702167495705 184 163 99 0.026103418364062703 95 458 12 289
3320 -1.027393246573548 1.1804163402160153 2.550155111326307 242 220 132 0.16865506184881501 16 538 12 301
3321 -0.78721718262314189 0.98817514411996865 2.5524819682022852 79 128 65 0.01243776953819037 34 1181 12 302
3322 -1.1723019965693331 0.5479761485109601 4.4339765254962265 83 110 58 1.3202297692079232 62 171 12 312
3325 -0.3704676390510549 0.67386951215556534 2.698912171862796 57 104 52 0.17163808001329717 54 381 12 330 98 308 78 303
3326 -0.69490602625249465 1.0743586641952294 2.5587337635783665 116 148 80 0.2029796111681724 34 1197 54 240 12 354 98 673 39 240
3328 -0.23564890836816538 1.0894182561532491 1.5448778421485265 80 118 65 2.2587619938675196 54 393 12 362
3329 -0.90985711102994515 1.3104403817519126 2.5618005036102565 120 196 95 0.35598196163207874 35 676 12 380
3330 -0.92450946283359481 1.3294747586885516 2.5529622318919869 124 197 97 0.30882683765122876 95 693 12 384
3331 -0.67615593714021394 1.1252915653065478 2.5604272996503039 89 128 69 0.0089785431421450478 54 255 12 386
3332 -0.51960784363340895 0.98888274497168971 2.5977597985446903 80 112 62 0.18142309678261115 74 531 12 390 8 197
3334 -0.83776225187023201 1.3041372631444397 2.5545596754682225 119 185 92 0.11581024193875446 74 651 12 403 83 366
3335 -0.58098482074644731 1.09250021588435 2.5737920654070776 218 203 124 0.24635625263746791 16 513 12 409 100 498 98 214 88 181
3336 -0.64027495156752057 1.1679504033234216 2.5614796153494801 75 122 65 0.016118887374089366 35 606 12 415
3337 -0.34520268140338917 0.89394974462218391 2.6603294559561297 46 85 43 0.13483281014470869 35 468 12 416 98 323 51 257 31 317 70 149
3338 -0.16064573099001023 0.71211563797465427 2.7641124042330345 56 103 55 0.043170720755057075 2 385 12 418
3341 -0.1891734957430504 0.82519368146265282 2.7280677217818297 84 112 64 0.2191518506089109 34 438 62 435 12 447 31 394 2 437
3342 -0.79940855892524487 1.414774881997759 2.5745846875627225 212 215 129 0.01404568916150236 63 604 12 464
3344 -0.16309528598888828 0.85688313878930911 2.7359307667785817 81 112 62 0.13031657941292546 54 502 12 476
3345 -0.35517791943415916 1.0566464751165905 2.6356104581382636 207 192 116 0.11183920775524948 16 498 12 482 8 163 31 247 62 517 78 250
3346 -0.31260873174120818 1.0197660002991131 2.651979196270561 53 85 42 0.14970261546442579 54 424 12 483 98 339 8 182 78 280 51 232
3347 -4.5390539332028625 -0.91561774001213025 19.961332423683498 132 134 81 2.8600444251154729 16 274 12 484
3348 -0.53142918023534247 1.2822167547785908 2.5934369570229308 182 185 109 0.079639634960484873 74 657 12 507
3350 -0.50081663397762444 1.3182671363551 2.5896891443913721 77 127 65 0.36933638555605136 95 690 12 533 39 318
3351 -0.50302040497098688 1.3330353445371312 2.5897246354209793 238 222 138 0.19083775643573803 62 598 12 541 55 426 8 62
3352 -0.58901537235128976 1.408416307364833 2.5888869703601558 243 227 144 0.28600856641535344 62 613 12 543 83 486 75 351 95 720
3353 -0.57768731420489416 1.4053894329223842 2.589194309285511 101 164 82 0.10071960593570631 62 615 12 547
3355 -0.76219469846426124 1.2029956345600183 3.9829114199611979 63 110 57 3.4953498817531905 35 774 12 552
3356 -0.42415528282166037 1.3368584498829095 2.6144538481012152 63 111 60 0.02365696143286046 54 373 12 579
3358 -0.40053811616526347 1.3694067298866386 2.6173575287786175 67 115 58 0.025427230468718337 16 645 12 591
3360 -0.28646884538631756 1.5604568267421739 2.6812522217607917 73 129 59 0.15073727900854678 2 681 54 464 12 634 31 78 75 792 46 765 78 210 51 135
3363 -0.024883180869610499 0.22587524542731785 1.758926636045451 60 119 68 0.31486412262698532 16 754 12 731 8 519
3364 -0.025087491446802609 0.2259920624599982 1.7597436638531534 60 119 68 0.2790202987388965 62 781 12 732
3366 0.11439308045996108 0.26618442852775248 1.7260168687983641 222 228 244 0.62702618187044323 16 1237 12 764 83 79
3367 -2.3997772592748428 -0.15434173827024322 6.6053047440272703 75 123 57 0.5452874085763032 35 1276 12 779
3368 -1.0627606436292216 0.87046264041520649 2.5657498772078151 226 210 121 0.17532141795277567 35 1174 12 788 98 592 83 201 78 430 51 52
3369 -1.120799531515571 0.97409502181746832 2.5542881237622184 109 171 80 0.19277799717974209 74 1121 12 799 83 216 94 597
3370 -0.58545673079541216 0.51295458674352479 2.7003370963571629 176 156 89 0.093113922913811459 34 1016 12 806
3371 -0.58528808807711663 0.51319897831908556 2.69969672849269 176 156 89 0.0762359031472718 34 1015 95 958 12 807
3372 -1.2299214666609262 1.0910830058758234 2.5649228347409143 197 201 113 0.02920205526837822 77 1893 12 810
3373 -0.99714080747837619 1.0324830907556737 2.5469618415170867 111 164 80 0.035878146248588524 74 1144 12 829
3377 -1.0991827928857212 1.2327635980040108 2.5657733318874048 117 200 96 0.22913913834279334 62 982 12 856 98 585
3379 -0.52156906242015788 0.82118611771049055 2.6216145947181797 82 106 57 0.2513830425081407 62 914 12 874 31 747
3380 -1.0131217239247048 1.2535621927403717 2.5525055850465597 225 214 127 0.11852160059218934 95 1188 12 876
3381 -0.86166025323980411 1.1411734581407194 2.5517795248461161 243 225 136 0.049585386501913596 74 1189 12 878
3383 -0.74733743724420743 1.0864613468338937 2.5521394363168661 88 134 69 0.016626326228723742 49 1107 12 882
3384 -0.8517013737654856 1.1757220309856977 2.5451083136633668 85 148 72 0.1379126323967983 2 999 12 885
3386 -0.6316278978378338 1.1551693756810075 2.5606179987411464 233 219 133 0.24615220833878149 49 1070 12 921 55 1124 43 1149
3387 -0.31672291363099703 1.210332692885995 1.7731570866523467 208 198 119 0.3597875847063764 35 460 12 929
3388 -0.41071697895102433 1.0750871303944918 2.6183583884579757 56 99 55 0.12266966995051307 16 1042 12 951
3389 -0.84845793899056099 1.4546900293116301 2.5858480667924018 107 189 93 0.011996795694832441 54 735 62 1064 12 953
3390 0.080545030114986205 0.81690401034394122 2.235248042365781 82 131 59 0.20096622446389373 54 1377 12 955
3392 0.15194094041240611 0.78943603559724429 2.2586745067209146 70 124 66 0.248502799530324 35 365 12 965 78 671 83 926 51 699
3393 -0.19798668712854722 0.96147399840595726 2.697425024620399 51 104 53 0.33163799925638954 62 1024 12 968 30 515
3397 -0.279600633067838 1.127593725340448 2.6512314954229006 172 163 90 0.21632269165494389 34 1212 12 987 55 279 31 724 78 596
